257.5265972747249 249.20772660266053 243.4637444719494
80.96001546909895 276.8125091461073 156.29178276574902
198.0567971229194 180.94842383237003 369.8638404532141
59.495813531783874 209.6867103930365 293.5234081738165
418.5559032371001 103.1587695038092 96.3960461343519
460.18291111020585 105.27937809536203 285.931679440227
470.7615088564287 232.74288569335954 333.86214975538854
418.8359989976912 43.393077492265945 192.4009867599229
435.93528952478835 106.78724223236672 406.7965604736918
52.46725087676757 -17.688491481360973 428.0267487604084
378.97921653725103 14.608746513074221 331.6823929485443
84.66897976636224 121.6795315034743 418.17132109224053
384.99149565970686 55.581035671235185 89.21868633982861
381.6163801522369 56.21730761493356 216.91154797345195
293.1836862174163 25.10137561478144 401.4598420779384
406.30753777966834 31.55580523044846 397.8382688014479
400.013410716438 46.01947286857348 98.02277239671378
289.0610194679821 23.15130884886711 432.31017187589134
78.39544348382753 139.6365147958449 429.504922818528
74.17236425258885 29.570548717279134 76.10396481409198
257.5265972747249 249.20772660266053 243.4637444719494
80.96001546909895 276.8125091461073 156.29178276574902
198.0567971229194 180.94842383237003 369.8638404532141
59.495813531783874 209.6867103930365 293.5234081738165
418.5559032371001 103.1587695038092 96.3960461343519
460.18291111020585 105.27937809536203 285.931679440227
470.7615088564287 232.74288569335954 333.86214975538854
418.8359989976912 43.393077492265945 192.4009867599229
435.93528952478835 106.78724223236672 406.7965604736918
395.7282750964762 22.38368469746881 257.2262978503857
52.46725087676757 -17.688491481360973 428.0267487604084
70.12015802390638 49.77924990442861 76.39786742358694
386.9880386619148 20.085848863308655 329.906455191463
61.2674966006705 -6.726637801629526 202.44179894743505
81.28876779381645 131.83101006482872 417.6346243703849
291.3586051844979 24.511926995985686 424.1582691950348
394.99954278253716 52.82628425444217 89.48043890114944
381.6163801522369 56.21730761493356 216.91154797345195
398.75122215438984 34.16847921552993 393.9675291417609
291.42031100139997 28.36888348225595 402.9631822028889
257.5265972747249 249.20772660266053 243.4637444719494
80.96001546909895 276.8125091461073 156.29178276574902
198.0567971229194 180.94842383237003 369.8638404532141
59.495813531783874 209.6867103930365 293.5234081738165
418.5559032371001 103.1587695038092 96.3960461343519
460.18291111020585 105.27937809536203 285.931679440227
470.7615088564287 232.74288569335954 333.86214975538854
67.5953885792596 80.13541220535201 86.48568086474688
292.4311450799914 31.2787840648216 405.87865080656087
418.8359989976912 43.393077492265945 192.4009867599229
315.39136946036865 127.49748410714673 426.9168321661915
389.658647462798 38.64992477355153 389.1461407826268
401.0855733794632 169.50577574074808 382.8036626170695
392.0330054114386 28.19597375763883 206.82226264039443
398.21623947605576 55.20877864106424 84.49945697543185
435.93528952478835 106.78724223236672 406.7965604736918
292.1349883634531 27.837834393246656 417.7671680083211
79.31750561897186 131.27350343542122 410.64308824998983
70.91542155207034 2.4321153482513065 211.34892519984533
385.1506640782124 26.06671002984503 326.45760457497823
72.1545671057849 63.173308046546616 80.75548191140801
95.36764417729219 -14.353104636393457 411.32752193285387
392.5676113011086 27.1865094863418 238.15625506625685
63.339473600995156 105.27090876992091 386.05700544168985
369.3854880106659 174.3723692289538 434.2051907695268
257.5265972747249 249.20772660266053 243.4637444719494
80.96001546909895 276.8125091461073 156.29178276574902
198.0567971229194 180.94842383237003 369.8638404532141
59.495813531783874 209.6867103930365 293.5234081738165
418.5559032371001 103.1587695038092 96.3960461343519
460.18291111020585 105.27937809536203 285.931679440227
470.7615088564287 232.74288569335954 333.86214975538854
323.68995429813435 93.25204357654663 435.7944831457291
373.3576613818457 168.0094375316882 414.51838725840094
71.85605052640082 124.00418042261657 389.2156084956357
391.8911576398643 32.92971857553157 228.72697871313525
135.03879513692908 -2.9568846886944744 399.5876260676093
76.00036856574374 74.48122551868055 84.93894324854502
382.02527008014727 34.13899966235018 319.7816271208191
122.21104345835259 0.8191325747239517 340.169374174921
417.6293027092794 90.35801116566438 135.36260028688332
80.60287454993828 10.92156416092771 210.27855330704193
77.42435895409903 131.5973977821693 401.6637756070189
293.01883836042697 32.00848939537298 410.9277865640172
436.69284682215505 111.29704464225976 401.38266362393585
403.8421373910625 61.29901657173735 79.07758983186174
395.12296293343235 3.345354153774256 190.71080901081353
386.7008007354547 169.8672569695479 397.6446953781675
418.8359989976912 43.393077492265945 192.4009867599229
381.0538322031889 44.93546993204714 383.9248277959192
321.5461656341059 110.33878174677389 427.7599975707263
257.5265972747249 249.20772660266053 243.4637444719494
80.96001546909895 276.8125091461073 156.29178276574902
198.0567971229194 180.94842383237003 369.8638404532141
59.495813531783874 209.6867103930365 293.5234081738165
418.5559032371001 103.1587695038092 96.3960461343519
460.18291111020585 105.27937809536203 285.931679440227
470.7615088564287 232.74288569335954 333.86214975538854
320.4106909088664 99.44670196527495 425.84973026798804
181.5109196041354 70.25229976387168 104.53218827415472
371.4391565976654 51.52135435309518 378.5096455750486
418.3391095389752 47.36582573956626 193.4470136333554
376.19043694057973 166.0891365602565 404.2484558754837
392.7845699649433 -13.113409470674519 174.93066214726403
409.99402753122376 70.28052692759888 76.26092460982514
437.51662911190823 119.78513976212562 390.53302274121404
294.1063239081367 36.248798728395336 406.5413029856345
76.2359058366275 132.96070791881306 392.1930632599657
90.28012731796795 19.4093932687256 206.71140304838903
409.57138140640103 84.97991176492128 124.81008642069891
124.8273641683993 14.781926226784652 342.9624706447745
376.8923428253405 40.55868026124131 311.40904502922774
82.07444058924385 79.95712418438734 88.32488255633537
167.18800838617588 12.653619510090461 392.91332605399566
296.74868343313045 171.93160911968974 58.44211178438699
393.2815916269179 37.926162729873845 229.05322989989563
209.4570509804438 119.32521281156782 96.67654198053647
257.5265972747249 249.20772660266053 243.4637444719494
80.96001546909895 276.8125091461073 156.29178276574902
198.0567971229194 180.94842383237003 369.8638404532141
59.495813531783874 209.6867103930365 293.5234081738165
418.5559032371001 103.1587695038092 96.3960461343519
460.18291111020585 105.27937809536203 285.931679440227
192.165717140409 108.76392716688639 98.33272218654912
362.068984385954 60.434607961171494 299.0869031190699
393.158835391867 45.443803070926585 230.48931246927893
291.41170599591703 153.58497318205218 67.31931632864298
190.52979685927383 29.878348750248794 390.6913901683799
89.40660396962754 86.49394030715224 92.12095911744211
371.3383002803493 47.309969128374874 302.3579751723227
129.39703426724103 23.69734218879576 337.3467381462589
402.21554336796817 82.54819354932138 117.47829505603795
101.08738459319102 29.158579544692195 203.02050402142473
76.75695578427687 136.6116751404549 385.3455718990522
295.64940337559017 42.13642005639463 402.4013815835056
437.51716725864276 130.281730282372 377.491790928697
414.4420595469085 80.03857211501618 78.99265119034945
385.1955787857105 -23.546906928961143 165.16112141423386
371.7266746353966 160.67504084365564 403.0572054543515
417.5989678201321 54.79425356070391 195.2858136813718
96.62257561507143 62.538029876044206 260.1155746485747
150.6696563071771 179.8663232375747 84.02324670418773
361.2427909646384 58.21533673501742 373.0974307043217
185.72378332633133 90.26140132703935 101.49953523314792
470.7615088564287 232.74288569335954 333.86214975538854
318.4203104032119 93.93617217807761 419.96565114716816
356.8864605656118 82.103593055834 341.21591656157426
110.68581263564639 200.91329121632657 121.92218346507131
383.63961364830095 226.63985213530026 452.96314134518326
257.5265972747249 249.20772660266053 243.4637444719494
80.96001546909895 276.8125091461073 156.29178276574902
198.0567971229194 180.94842383237003 369.8638404532141
59.495813531783874 209.6867103930365 293.5234081738165
365.97948164775477 230.1698180718162 442.32975811412916
418.5559032371001 103.1587695038092 96.3960461343519
353.1990462733794 141.31838189987 405.5102855965016
121.50928806644848 191.98711625716783 108.62141942281616
460.18291111020585 105.27937809536203 285.931679440227
345.35851129120425 74.74045460051668 355.9721924700438
51.03372075915725 174.70324752120374 349.10313829403583
315.9406803312866 87.43878350734033 410.5118981705172
463.3084484166997 212.11781097048274 339.3351644758233
182.69381628656492 103.62527508553633 100.30599882183144
350.7641079953032 64.72308220056209 368.0189983280958
135.83963550984572 185.23516582685096 96.43513556756865
90.19920442429714 68.84242358787105 253.44062070546624
416.8307755772006 65.20999893870955 197.8582062342568
366.20132815275883 154.41162369768207 400.7440816445238
373.71475391341994 -29.643230333187912 155.14495937759258
418.22122361491824 92.47540243179613 84.42068988317578
350.88344282263523 243.97524051703152 440.6661577970746
436.4003558876341 141.20674225103923 364.3023276817062
297.4765147588613 48.9173849900384 397.4150975279021
77.56498378672778 141.0043293849584 377.5050502225718
113.38965625716693 40.73501065216183 198.97436765903817
397.89204929393725 85.16750222901787 117.06936327168802
133.8228629009611 33.5250518129316 329.7012372846031
365.73426679501245 52.87885584882643 293.78870817615797
97.3664131684797 93.89742516282138 96.26702680639457
204.98904006345202 42.5126394499867 388.301336609053
289.48106562787723 144.40251335313314 78.29765009776035
390.2614939461697 54.494684260430326 233.6934813203127
404.36489008808144 98.19400124686894 181.77388849317023
67.34828613951065 90.07532544395085 250.42873986911022
257.5265972747249 249.20772660266053 243.4637444719494
80.96001546909895 276.8125091461073 156.29178276574902
198.0567971229194 180.94842383237003 369.8638404532141
81.03199757817956 88.89466082341814 248.48484829550935
59.495813531783874 209.6867103930365 293.5234081738165
413.7955095278914 92.31122522376778 197.44913751363993
348.1872815955473 51.85501359166998 284.64751961643435
286.555538177602 141.1988132684122 101.95514024337882
383.40137414060564 63.01028094349204 239.33302766227857
230.98182009504524 16.189151108786348 166.92813718001912
290.5511664518647 144.55034133687448 87.29071773071568
210.94516499613698 49.89176747247652 386.19455835160875
105.58826003692462 101.80175133153045 100.62789996856117
360.9569236834732 54.49898709037026 287.88867179771466
136.50342584341504 43.05978088712415 321.74035908493147
392.58421851238205 88.77393938718508 117.38703100930229
129.51076255673567 56.81869555464168 193.8939331316841
78.33877026951578 146.0520596940726 369.52139380439087
298.9255468431961 56.49342580396289 391.81832500898884
433.85003280194474 151.61055647949019 352.14451517347095
356.6561791596394 234.36406332063632 437.6264256710934
422.2654966373149 104.44927126849726 87.854207777232
357.74292150181327 -28.462808126181148 146.4286139658224
360.3701634076974 148.5133299456884 397.5020780067852
148.98446476949943 32.59827076421466 274.1772068431265
416.49587718655243 76.98396068638712 201.04968274914373
88.86733061318252 77.50344680160586 251.76373593192844
334.65103205514436 -1.8875105803839531 240.1021796519508
127.68843416927706 186.01234558510353 102.98955030721983
460.18291111020585 105.27937809536203 285.931679440227
340.40078143003893 70.39119178244489 364.05385058493755
175.28491973843862 108.16046957274365 100.80934151213513
284.770934357628 21.88677944256297 243.35751383397695
447.5830994606898 190.00262972470267 339.39072358925876
312.94833496563916 81.37244366158833 396.9106546259085
64.81973539712725 163.9511885081338 350.3073695851654
257.5265972747249 249.20772660266053 243.4637444719494
80.96001546909895 276.8125091461073 156.29178276574902
74.57636914505747 161.44490250736357 355.4829126334619
307.7242638175406 76.88592170732916 383.5107358268877
431.144870325261 176.44209022230373 334.3169643764258
305.80941677488795 32.544395744498296 248.2408754563899
198.0567971229194 180.94842383237003 369.8638404532141
195.7616385662345 72.70287774211305 217.00480836563335
353.2157694989637 168.96698248938372 80.80167621738572
164.87808690996988 115.17280483544769 102.9901875078765
331.16188222253334 73.48289273475676 363.27192208249005
398.24688881189996 123.13436468671418 296.65868220886387
451.6870591105818 98.85298765389616 266.509782489215
126.58330442827139 183.0673773652655 103.50256707595173
324.20522269322396 22.499477407704603 243.30359636565836
90.47528262160122 85.12717698780686 249.55321708970197
272.07057464216 294.89913219499385 442.84376973294394
59.495813531783874 209.6867103930365 293.5234081738165
417.2294697613413 87.87887261216095 204.79976392595103
170.49831317607638 44.320645158074825 271.1861191131752
355.9964964385091 145.73671018974028 393.6249761996053
336.45908682623656 -15.64665565906649 141.1508244252741
426.40108356949423 114.33270629937152 86.49302306805482
356.9417549758732 228.85900640102795 433.1866763642655
429.28648556790455 160.38581693968246 342.4909393733626
300.31473468455863 64.27943914283121 385.6481770117744
78.3926439885651 152.00772337917792 363.9706368734945
138.40468128674158 66.00771415926658 188.33252409816583
387.15769490395365 93.43168557318381 119.86139375764805
139.32313822463178 53.045260995858314 313.7650682369399
355.71126709365996 56.640036016463434 280.89529362863027
113.91042110074501 109.81264633280139 105.09026541964838
71.46912596168357 283.3646512917156 95.38199907053135
216.86859880857938 58.73010088163214 382.89136008860345
293.6049561663359 144.89216827607476 95.87092367031408
228.95752189330244 38.06639959690531 177.12026040051873
172.74024336521128 227.36975519368886 383.021918792706
371.577107431864 68.00594167523114 248.047015408873
123.34526918856079 81.38497820346925 159.46387439975777
213.37471137593386 287.9844104683897 437.025325859285
257.5265972747249 249.20772660266053 243.4637444719494
80.96001546909895 276.8125091461073 156.29178276574902
233.23824797036102 286.61573526809366 437.69783856105835
141.925900054088 83.22186282445955 172.0721625525541
353.86557974702447 65.60469932841725 260.5060487145378
194.17694377634578 229.0091052241308 387.7094929755138
223.07820038629956 52.19179747945719 182.30762513485033
298.8443408882832 146.34260492670842 99.87427258764228
222.25560998860146 68.36143570032645 378.59010309363146
76.62019873960108 268.58856424875563 116.8124305444972
122.1713902343172 117.19401027836162 109.49850115646358
351.59165376857834 60.01967472861316 275.0600149415993
141.566675488862 63.935198329411634 307.10755810125943
381.22248148377923 98.79782787892056 123.34898573783384
141.7006041605563 72.93063931520818 182.52601081262182
79.87696435563545 157.27737392886218 360.5992831684851
300.73841415253315 70.89546739997438 378.73836977132856
424.3828635774512 167.85330901532916 334.2362249775085
356.69329398762716 224.1700356077329 427.4106184761366
198.0949956794512 227.72520030091937 56.05525804921163
429.2113332148605 131.15451763563598 83.12842382935668
308.52304948293136 15.266096154675942 142.36962689802792
422.08490414502734 268.20370869552437 350.73009637998535
354.03901988908933 144.21322245842538 388.22700017703556
185.6789143404443 50.136011265000974 273.1947546222787
419.86432128996637 94.91921865853365 209.04945301915816
60.3215791354908 209.74189426879198 292.96062027440183
252.82939021134183 289.92166797002704 439.8208155993522
93.88850112695486 91.51378907066389 247.77717144208754
318.483372876229 38.275649026018314 248.3859829525763
125.8553345318249 177.2728873645721 105.90500283863675
198.0567971229194 180.94842383237003 369.8638404532141
439.0587336331945 100.58350887161748 243.03974335445997
234.66237209030186 42.15467712819899 272.09853716278496
406.67978388808314 147.1019744330992 309.86943661270584
320.17781235258997 77.13865159842382 362.4760514822001
153.75183144513903 123.64489418390804 107.12900120153648
331.2673396513691 160.446225617821 93.2421961674971
208.95748993185782 76.93935107516367 202.93078741478018
257.5265972747249 249.20772660266053 243.4637444719494
80.96001546909895 276.8125091461073 156.29178276574902
213.09268750617056 80.37556041053534 193.01177914838757
319.1072904503042 153.07568760290638 107.37522930823789
144.00884259949262 132.30992469728844 113.41683084339903
133.75731717870562 92.41896268431456 304.1053531446267
306.28091300109844 81.64500197965334 362.01001242901907
409.3242808521158 166.92178242259732 316.05949390865186
217.85788131792077 57.984990341529674 276.12059235082876
428.2349691412797 109.37267465532642 226.4194557875185
207.23695164136535 155.90441374484524 370.1297049070081
126.23829934551237 169.127781743603 110.73254122920315
317.0143654207306 45.001707394219096 253.37465716896006
268.3148959227949 44.5982694968635 326.94704780581765
282.11141586844184 292.7215767904211 118.62164298895016
257.10485963453556 190.59076080957547 417.5821139810479
441.5945833410366 256.83539506562306 252.22090279971619
113.96318878188774 233.1676845308681 386.3838568291683
98.06309719136627 98.95389532457249 245.89363171731586
243.57790105938494 285.2504881243643 437.1327914800776
62.23989328490786 209.71657435640947 292.2281538952758
421.3796201243527 103.13711949711006 213.73641485673463
198.96141065223915 57.057601926980325 276.0900619394151
351.22160461622656 143.24527357980594 382.3934496384677
419.45012135578503 267.4864522099372 337.3906653658671
288.5700258669208 44.98203085098443 149.49089670379107
426.8358312490315 153.00041192290487 81.50076162920662
209.49625786751216 235.85618534365955 65.82591350818407
356.12714408405515 223.66266137389846 421.6174412908362
418.794457684955 171.84079668746475 327.50491059851964
299.3924333049797 76.0265277392649 371.96863832006966
87.73634922480596 293.12617574510534 251.20795736592774
82.80817339362868 161.61475212072196 358.5013840509335
146.8645655156609 78.81284480732118 179.61665620003424
375.3648355247089 104.83102560941143 126.3502414491737
141.80151340181985 76.89549960332916 304.7056940160629
346.6617143248401 63.75014455992475 268.7705698992824
129.8485637984953 124.85735405621749 113.88307211609265
77.26513955218383 258.5803835004547 130.69555493074367
226.15894761376913 78.08149209520901 373.23125990651243
305.68085543191205 147.80701779027646 105.32565064140867
217.67724028197182 65.91342173681902 186.88197115119974
440.0572067194861 274.775331055377 386.1086102105584
207.41954971001934 224.91703801279678 392.4846576550528
257.5265972747249 249.20772660266053 243.4637444719494
220.80268827657738 221.3291563084509 396.4019534882659
400.83128924209444 257.8567770665345 388.08323201262175
80.96001546909895 276.8125091461073 156.29178276574902
212.87720976875903 76.99589700765935 189.6748580608721
312.494424623129 148.82382101238431 111.91709369836886
231.05459788740941 88.64813509378428 367.25611201721586
79.05435314110139 249.3083571914643 142.97567549595885
134.93216792885573 132.7616006068101 117.91995634157026
341.1978856450725 67.20730711578013 265.3146619734871
55.421264970871974 161.02324155210627 188.4034081953423
142.6522721220369 88.73528777941605 301.7978011101384
369.15184688204437 111.28356855513147 129.5469197661173
152.79837387561656 83.37643085037257 178.5360120931596
86.49806513150992 166.84194543921313 355.99938972631026
92.25116645092386 287.1677789828655 238.61958507014472
297.1917102329709 81.43332459739801 365.2374008280606
412.3510494008123 175.30769651178994 320.8003531247624
354.3183790716154 225.13238274654856 416.6280758959067
220.70584840288274 244.08106902321717 75.8472910349206
421.3174077672932 167.01486498331852 85.23878416216812
276.6367045679894 68.84936713803026 155.396324664327
415.23754071058534 266.79809095976526 321.74459199162914
347.3837547680243 144.24183616009375 376.1420207842364
207.3353238456076 65.41095171838163 276.6989013414763
422.3860369948473 112.06369705121303 217.8039923244659
65.64628750941165 209.54632989926338 291.42432048432806
244.2069346088017 281.85813534819647 435.30492576131263
102.79087712145855 107.25484347246442 243.9940461326935
109.66122632198429 220.97268919135084 383.9436298926055
426.5061382277663 261.16434514963163 274.7132381098143
243.1728933563418 203.39545247074142 409.64291157629566
261.41062383226483 276.3452635760578 104.9826973215717
280.7519287905261 66.14874257436558 340.97446875466477
318.4159569247366 55.785453270483494 257.4627972835077
128.69832087497917 160.29365889891596 117.64197776493185
223.5005774619651 132.8255105240819 363.6159831408495
257.5265972747249 249.20772660266053 243.4637444719494
239.233240043938 119.36200891095635 354.40742743489733
82.3606928257701 229.6887324218096 154.35751771720547
134.37860533842607 152.97390204818439 125.45748363689712
322.3766251774325 69.90151082574144 259.90158891424346
288.0187429424366 84.62532185887424 347.0131466622085
247.03760774718629 264.1564501050162 97.85712999514507
237.66930004659184 210.82174330024438 401.5157368364169
410.1205234507522 264.6925501723818 287.32244849859666
106.82851268178219 218.0308971433673 378.0077575576426
107.96970474206987 116.1917540086515 242.2024769218312
245.40883536573818 275.7900580779834 431.2112652850555
70.79912295749304 209.16992094961867 290.7720476278406
421.57200559319944 120.02942756520316 218.69859819288186
210.69511545042766 74.18965897806804 277.5164337479603
343.0174844771757 145.65196609381192 369.39644689247626
409.8748583962159 266.3499106502884 306.9916475352392
230.3028538446321 216.1179180077099 401.7371817161581
270.8059781569151 85.00341900952297 159.49521473168562
414.5880995196599 171.6893769752623 92.33824372729802
230.6367241626872 251.33243153993556 85.16624387310708
352.01204097959135 226.9497395103277 410.55844778850496
407.55019294006416 180.02754323739748 316.2999564092551
294.76647653210676 86.73320625294517 359.0652068798392
92.27628818111964 281.1564410467845 227.31297581705456
90.88319297243159 173.57623608091458 353.88154850449814
159.17014283065043 89.20923012453028 178.10773963860507
362.69160388271484 118.05090109878317 132.9087344202954
144.9580506181661 96.50104507614226 297.9509963632298
62.001862553245054 162.54008777078238 205.50224559691074
335.1628804014939 71.5645943574183 263.16488607888914
137.9262003472787 139.8052344471454 122.18847903575441
82.04437191041254 242.03409287647156 151.68870671521591
238.54551374317222 101.27705589745979 359.5219555923786
316.1551325099073 148.40136333435356 118.68954466146536
209.39352879145153 82.19775219791053 189.09425477277293
88.8435142554393 277.48752887642166 175.9115435948872
370.91969179674265 244.5670502531637 390.33181671600283
257.5265972747249 249.20772660266053 243.4637444719494
136.81531944655777 124.50446072596564 245.35206473556767
273.58817533662125 112.91763540183288 166.90356197130598
350.23791542731345 235.12048635925748 392.379151125202
91.48364789319918 269.79851421905505 193.9344166132069
204.12184790613597 88.33396668635197 187.39636135315334
321.3583652851516 146.95835984490373 125.203009225742
245.5543047350273 110.9945002939837 352.047679492945
86.50708150918311 239.06439242802713 153.3059766342485
445.5860369025339 291.0500361979296 210.5468038747015
140.96918777855373 145.51013625657157 127.28353610498128
329.28953285792716 76.98584324898775 261.7751020181918
73.14315294060586 163.81057066195007 213.7050509476493
147.69689456035982 104.24370318586652 295.66918545626646
356.0647612701977 125.04558005402637 136.40514300933827
165.68589084602937 94.11868343947748 179.60751032596076
96.22263975135651 180.6082213321481 351.53701902856847
92.72307639752513 274.59796284779236 215.83934525582924
292.53866293157114 91.87618434712492 352.411542270569
402.32800240792136 185.2425851900314 311.4564102395693
348.92986063889873 228.86674214548918 403.86486829764885
237.8139608362946 256.3949534379565 92.60425094134236
407.266128892574 178.0606544972326 99.99302702442465
266.4501589842109 99.51383319366961 163.71225318444016
231.61363399890476 218.6379208832531 398.4826853320295
403.6290280318679 266.2901777074934 295.4289007909334
338.0258162357328 148.21199798687903 363.14401471185846
212.39407329969447 86.35268138055065 276.64623267272776
419.67671363649197 129.78964359125393 219.72219765473287
77.63050615913505 208.5742142636597 290.6591989700945
247.03963040391767 267.26362729251895 424.5496157309784
114.08883618532299 125.63050868423275 240.94866247292765
105.2081691872567 212.66336589347645 367.87619110611735
257.5265972747249 249.20772660266053 243.4637444719494
174.23393278258192 109.30980785474698 177.12497056042127
107.31942747663928 201.3319491706417 350.7537506854961
120.10637734308693 135.73802430067855 240.28510388893417
77.27483036799676 202.9723636120148 220.82171167207485
248.83007233174442 257.35207533507344 415.60804911934537
85.55960598000742 207.86872332226523 291.6638984996541
414.73128072340216 142.25786394254843 221.1540959147251
214.79994394007923 99.87167403812752 273.06326365041616
332.69892597034044 151.04737101751712 356.5529886252272
396.81850573008614 266.8578480235905 290.5171003084629
235.1421425388897 221.65806391745977 396.7757708381995
264.83947577886926 110.58489321726191 167.787224098545
399.9078673750816 185.32531674789308 107.90679790401268
239.47923912528634 257.1072704936122 95.9416244477629
344.18763690658386 229.6895227027619 398.254514266131
396.8747997698456 190.62749480558438 306.13149484696225
290.3513138385772 97.4836994913829 346.41186570765416
93.50090411020544 267.97506568723907 206.0970819636416
101.66623192772623 187.2708600003373 347.88578193580815
172.74303911663029 99.64300541264868 181.25752251180074
349.3691192938031 132.16858586536694 140.01965195112476
151.0042286824092 112.29001857473989 294.08174613456197
85.19765274884381 165.78394257111879 222.0444689159447
324.1217105361086 82.89740687988751 261.2070879941758
144.6197659588452 149.82689985626757 132.4175476632081
407.6849404492556 295.133399154814 196.9896394379436
91.7219233973444 238.4932841712503 154.70026716973445
251.06430968541312 115.0989187552687 345.5594289927791
326.8690677472625 145.5637465621267 132.98082610903208
198.47661077836156 96.07788635188675 185.56197901135783
257.5265972747249 249.20772660266053 243.4637444719494
192.8780250793751 105.4576849278382 184.04085497474333
332.4755861048694 145.009266726507 141.8521742611749
257.5621163957725 119.07511846269894 338.6272617173112
98.4736450596472 237.9517814715997 157.459983623911
378.90984690977695 295.1282342085755 183.43570032362965
148.573816904081 154.33872777491052 138.03055071473008
318.67763272751125 89.18583596639995 260.68890403354914
95.9674850062269 168.23229380644636 228.20535326797665
153.6828028561742 120.90618540402227 292.8588200785117
343.00729520221233 139.07802252713543 143.80198460983058
179.85592865412778 105.57333411416792 182.88216536626786
107.0460780178451 193.92935685667183 343.7966775179501
94.73077655058404 262.19015422297076 201.97605464422347
288.08035417863346 103.44380744024919 340.2229750860832
391.83341975838533 194.83205124068647 299.7875244140825
338.7475109963188 229.59494019110116 394.046614656717
238.8884500339069 255.57036351475787 98.6160737923503
393.25309655147834 193.01118063216782 115.74285317176955
260.68489017439396 118.6089712908803 171.23167023768534
239.51697911991747 225.6298037399409 394.3249112402401
388.6962017217716 267.4685591603145 285.3002227683699
327.1195626101848 154.0237251515147 349.5887724654943
218.87315401167496 114.96059772249313 263.2012009857606
405.7927098321852 158.45444294968905 225.56856067812083
93.3486903882624 207.3787374293166 294.5729864990257
250.57656143506105 247.53476121014182 404.9719214675353
85.42199069113218 225.82841931580109 207.3777637645694
121.27034287501132 146.43785878580167 238.64273689519672
257.5265972747249 249.20772660266053 243.4637444719494
122.7193456017576 236.01489741047823 162.8410011451023
341.1568301395405 294.1065847505873 164.58709164875563
115.20991250349687 165.56126455114355 233.3987850080686
96.18687316766318 241.48957561515118 200.36661876774494
247.38326420637787 140.16905242065977 173.28313105450115
252.13578813381105 239.4792215673237 393.2282202325656
282.26666488120867 135.73354130111878 217.00130188418552
98.91440434459246 207.7647489055073 300.42102613293383
387.59801548363384 183.1688646463949 237.54044465247304
228.27112881986417 126.88698036603029 247.2349788375836
275.1220895451718 118.61686220804992 224.19140099781026
321.48211594570324 156.50502744045713 341.513767277884
379.5693824526811 267.9087297937549 279.879816880472
243.73743995354369 230.34181486181137 390.42642158191353
257.1009988478917 127.80462787735175 174.62777261124177
388.90971824197635 200.62449576434847 122.75798824214414
238.20332091978432 253.56442323240952 102.4724078011204
332.4048908904236 229.7444559950365 389.2880383381237
386.30913119484165 199.67725192664122 293.1415944113101
285.3819069791349 109.58487879607404 334.1592174363236
97.46783952402167 256.8833821045582 200.29953820850028
110.60915363381825 198.43735654453647 338.8687917823043
184.73730770889955 111.53721636960474 183.44228959519072
339.85971210433013 143.39737661761586 148.17093176391273
155.7026612902192 129.89280218463603 291.736555316415
102.89807796649121 170.94138682291234 229.69828389732066
312.84256700848596 95.59455009595261 260.3807749036869
152.80240173598253 159.06253398790963 144.0455650072625
359.64520519945825 292.97373013340297 172.10249246592042
106.03393826395686 238.473342972566 163.2813533706623
265.0032513457938 122.48552956183204 331.5140376214783
341.4765891260837 287.11257307623964 266.07714443026964
319.35312805976037 183.95972589540955 326.2243759563951
257.5265972747249 249.20772660266053 243.4637444719494
314.6742878203394 169.85398453722652 324.07409093912554
354.05818430086316 273.3164319094902 269.2691326599035
273.89778946795957 123.58206864083917 324.88376863838886
113.2195210360521 238.91637773752967 170.09418867197556
349.8140239034807 289.48097354165344 163.80554955266754
157.2724204740825 163.9941225089838 150.3904847519386
307.8247659429354 102.24775274217102 259.6252962301058
110.29246631061685 174.06638721613564 230.89050649719613
157.66185010120677 139.12501534409037 290.5853265678157
337.63131729649575 148.21955006855575 152.26554618160208
188.38087356382556 118.16928890251799 183.96806700513346
114.31620313335345 203.14664354275874 333.465102499076
100.94834811968117 251.19223695074248 198.42269974466987
283.1941106747523 115.86596790411544 327.9560686438853
380.4547009658656 204.78631774603272 286.5171258199799
325.58233813061236 231.19603223300692 384.4719427780945
237.43520492119956 251.08624242030777 107.61186769973361
382.4587706281095 207.11976676728295 128.704860505303
252.64714933985996 136.78843552439133 180.58121451738276
248.6578587921658 233.31154385757537 385.6532223559781
370.00343410889883 267.7226110681731 274.7311157638819
315.86681354211095 159.30591220772055 333.3265722457625
281.43149494397727 127.60206368082814 223.81850308449563
240.7765291193648 139.04452291485865 223.07331373136833
375.59759467993734 200.37340515474375 251.79982940021802
106.80871130307649 207.98719620885527 307.02911790583926
257.5265972747249 249.20772660266053 243.4637444719494
117.04049638521877 208.43528054263277 313.9637259454259
369.8284225072367 209.77775421790002 266.6324103770645
246.73308536957288 147.81078266596057 205.66530264382254
284.81905724414156 128.09397528958132 227.84183767101223
310.7231225448695 160.02696539600225 325.87299670567023
361.1041176392933 265.86303037638214 271.2031407440346
253.3180850320888 235.41027703952096 381.05081201230524
250.781846477532 142.83255508937856 187.39567612420683
374.7795864107391 213.39251419312038 136.05769361246288
236.44894132884832 248.06146708952562 113.89866474145168
318.27379328311963 232.85961092599345 379.24350948845
374.36325869975894 209.14442892272663 280.9867736798391
282.35292492066407 121.57934890160888 321.7435694833034
105.1800731036243 247.76110552674425 196.30438158124218
118.20015757334133 207.93498558325686 327.7235018301293
192.21085521849062 125.38064152733162 184.53252957793762
334.9437481049307 153.21252453095457 156.7371463571324
158.79701521323824 148.18673066998775 289.9010570928496
116.32569366975477 178.08400590277859 230.37591782503594
302.6653895130784 109.19135399406552 258.86649765092204
161.96893290543332 169.07651551072226 157.0302397065619
349.2985029599888 285.1888887581449 159.0553722982912
117.03568621839054 239.86188560503365 177.60591760816376
257.5265972747249 249.20772660266053 243.4637444719494
119.71904041037675 240.2402271434163 188.13272432695533
347.54950820236 275.71909276523706 154.89108866823918
167.05690679873007 173.93921769036191 164.20198077553331
297.39508355362864 116.40492425676997 258.17721976087626
123.00704748977503 182.66054992226805 229.77840607869598
159.98055937162667 157.51647484277225 289.1520678919781
332.1326613073904 158.51414657900574 161.4786587736448
196.30162646353156 132.91256435647307 185.44010838843226
122.58373523280818 211.71234210054644 322.4720831736441
110.5145120330361 245.32155083838018 195.51788446216602
281.9552882451669 127.08478491966338 315.49179533979276
368.093177040765 213.68413411114793 275.54366651191253
310.62565428077016 234.69391452590025 373.71797568026085
234.59317718043516 244.0236901108796 120.80870379611666
366.85049696920316 219.6259890121021 143.5875524864787
248.98452801518116 149.62918786272132 194.0302635111081
258.4056271934032 237.60083411264742 375.6237889027993
357.38923882179563 261.793620475645 269.4181832403212
305.93722009596087 159.10265971387796 318.97175259609594
287.9016934520239 130.29022453021213 236.9573865622054
257.5265972747249 249.20772660266053 243.4637444719494
288.3082504666909 134.35376982523732 249.0152314235097
299.83593951031384 157.79810619970905 311.91720063991903
352.82970099358664 255.98238929247236 267.3052870000115
263.84016058742895 239.83833902939594 369.5190120220362
247.9701880257123 156.03386194354442 197.05682067700934
358.7214739984132 225.2720743175149 150.67378072851943
232.90297009047504 239.86215450679776 128.69315713689184
302.76321302573314 236.67493583023736 367.99273972000464
362.15276557812234 218.2968140240137 271.68840816728965
280.99850231596287 132.81733753548193 309.81068462851744
115.9541081169521 243.30393813096688 197.60884719727534
127.50341340111567 215.18547226170455 317.98514559621947
200.30835812652325 140.40748448134391 186.9163041398558
329.1939954271733 164.11623427148476 166.42962085856394
161.5940432385049 167.0606870029122 288.2374312354642
130.23887630379625 187.84032902830435 229.21866965851214
292.3016047542519 124.13503974508866 258.56710062634335
173.60119550252182 178.74047999012728 171.44560802337105
333.50611362184986 223.78759671833762 288.53281627086056
344.34941474502364 261.11206948252874 153.98822663071203
257.5265972747249 249.20772660266053 243.4637444719494
341.2453581513687 241.72735029531736 159.04728843181533
342.7068166070075 226.1818273940881 269.4983603236703
181.2391897264066 183.02254472116917 179.04501935366144
287.99706025971534 132.06277414602064 259.21597691686407
137.80284919303327 194.00350547768377 229.3890046733758
163.40901079684815 176.83089565025017 287.1948279197727
326.13625384375297 170.19654303876555 171.1537178418288
204.0502167128784 147.9543827192382 188.77329227019223
132.91986492952992 219.1045845299212 313.85069771335407
121.37126904182534 241.56932369911303 200.50980035984813
280.00085947104793 138.76344910290572 303.9361853140447
355.90069949786374 223.00574722759984 267.6089626531225
295.0044585174074 238.89998672122678 362.22371798427355
231.39295068389572 235.656077932956 137.29725897418442
350.42087728715217 228.5935743618195 155.54656248637363
245.2385116100475 161.91034487048233 197.32202330264948
269.80022789975857 242.14954541177937 362.8858609826826
347.7547272361032 248.27141804170375 265.2044578601775
293.0721026069452 156.67011703192708 304.44303520390457
257.5265972747249 249.20772660266053 243.4637444719494
284.31363792716985 155.72464558314263 296.2146905614861
345.62322527030256 237.0825803910351 260.2011523022972
278.05829043113783 244.91623143430988 355.8225692855426
222.93747695814537 234.61887250916132 158.02477222536749
242.0440677830919 168.9178490000249 196.61211693070626
342.11304052139786 231.39588746481135 160.40061243449958
230.2923283826923 231.67707024951983 146.32502850150684
289.36266862510644 242.25542458525146 357.24243529830886
350.4589397586186 225.87811385588932 263.1917246772153
279.08157534839705 144.74418643229603 297.8545318207518
126.9866882480369 240.30591557346636 204.07937731835423
138.61347795554562 223.27185674683798 309.4907013436254
208.0926730310653 155.09634637786516 190.19582996933337
323.29724461275015 176.65166250314627 175.428810021612
167.02151449766504 187.2375879169833 285.37285088587356
145.4093196186468 201.05538813165316 229.21243357734875
284.2197262686084 139.59982289424747 260.64125083064465
193.44055161927182 185.5903510611176 186.36254131415072
257.5265972747249 249.20772660266053 243.4637444719494
212.17849868014838 180.80769052267 192.82376174719107
280.59809508540286 147.57341721634555 262.65776818900713
151.48479360436062 211.05069486512087 227.24937944849557
170.44882269611415 198.34342885596527 283.93727373179644
320.3387531556253 183.34508280603413 179.83433047411404
212.2536565985192 162.0222317376929 191.88292950885358
144.52423981472285 227.6655912496092 304.9222705702612
133.19093002447005 240.16430346265656 207.2338249933893
277.35833045237746 150.3800013247829 291.81975098551635
346.1499919097077 227.06213954803277 258.49876129462547
287.2380271836549 245.44294941879866 351.7981791749242
230.7426805805351 229.11215139879363 155.0102811880366
335.1579424760196 231.8640417005941 164.77141332686423
235.44957352839546 174.49540995248657 196.18938915094878
257.5265972747249 249.20772660266053 243.4637444719494
225.77726635698397 179.56504558514484 196.10870243329643
327.7122308752043 231.89408723180998 169.9696329855587
232.4409849545636 226.01795511830778 162.24925010005134
285.20787647753644 248.38114910727253 346.3964849312155
341.7358606301416 227.913982331126 253.6847845275037
276.29356165043663 156.1111523954673 286.4295065450791
139.96086684446632 240.44390196731732 210.33717746079924
150.3839733775 232.45551573388363 300.17630633191084
216.08713498873433 169.01211497868997 194.0291135282948
317.2672046552649 190.24679980865804 184.33603665619376
172.70098049139096 213.85562584068046 285.2078113030039
153.61036588899393 221.47319383121115 223.9579158344947
278.14641394088727 155.51324891641318 265.0654869424446
257.5265972747249 249.20772660266053 243.4637444719494
276.13764325182035 164.27279411877623 268.78245426488184
156.84304407659025 232.75507802711303 221.1034480592037
166.99934273731506 233.43480018924447 288.6995352147264
314.06293044105405 197.39503408652604 188.7048560709282
220.22840721933696 176.1937563452566 195.81762923074464
156.24711058191738 237.00326553382527 296.03376917275574
147.3070436869308 240.85081128973445 214.04394415220767
274.99749464431005 162.18424527391724 281.3825118707463
336.5377181180385 228.49197008391684 248.98112918608257
283.0684835963423 251.48592244377042 340.6562066677795
234.32778295955214 222.64975601749921 170.29529678917314
319.63859048884365 230.29835420627398 178.38680022090335
257.5265972747249 249.20772660266053 243.4637444719494
308.76823460442824 217.83123273279006 193.27398985334958
236.04033109105808 219.0363215097124 179.04121966095224
280.8003632508688 254.73335208570785 334.60955800569826
330.8056815665011 229.0867492358848 243.91243980038894
273.6413035887814 168.65633525770647 277.23516517390874
154.70577917050784 242.3331264381851 217.20365999056503
162.24568009479438 241.6958806660941 291.7914856124659
223.97755594640063 182.96844472658103 197.37689409692518
310.07959155927387 203.65696974481267 193.55091907206236
257.5265972747249 249.20772660266053 243.4637444719494
305.2348574293563 209.38800079368355 198.74358038392865
227.4202272878242 189.951721887405 199.3005613669572
167.75855720632433 246.71929548342618 287.8745006025359
161.84678057773823 244.39928484445588 220.0631712211094
271.8478820964876 175.14447092957002 273.44196615684757
324.55239771755697 229.03664255492552 238.6888761909236
278.0523108100251 257.9041839657007 328.50582187696955
236.2281973234693 214.52827828756645 188.43855472564042
257.5265972747249 249.20772660266053 243.4637444719494
236.6474340448716 210.50962975844087 198.50362181240325
275.37331525850044 260.67532143919533 321.8301055968589
317.832436892479 229.05428614563937 233.34544728081016
270.03030559570504 181.62374685714053 269.46463154590117
169.04830011745472 247.04037547789736 222.77970801887113
173.45746826069436 251.92982014334035 283.8229514868043
230.67182067009452 197.13376523669646 201.82360476271788
300.4393476008036 214.10828317649387 204.02833622592766
257.5265972747249 249.20772660266053 243.4637444719494
295.31198106387774 218.50414585374608 209.90055656390834
233.63835862741198 203.11656927780868 205.4828589197589
179.34381502080797 257.2693593279715 279.66354528159985
176.55106355582282 249.83294883441346 225.6204885818965
268.116161771934 188.23203974514473 265.6700304335425
310.35325651 229.4011714037082 229.06828417449015
272.3456421968119 263.71743635669975 315.4049569437286
257.5265972747249 249.20772660266053 243.4637444719494
269.4177285131851 266.69856534975105 308.564557495103
303.0074773876454 229.84071438762194 227.3448972192916
265.94635737603517 194.86348079737107 261.7207916774286
184.45464947134911 252.72913964649626 229.06578472356065
185.60017316940585 262.26853618957455 275.7513197176873
236.63666725823435 208.81525444982822 209.3957076070628
290.39639727053594 223.72983913904847 216.22654500435135
257.5265972747249 249.20772660266053 243.4637444719494
286.3605132709854 229.7964919451205 224.11998329946368
239.4475602324943 214.6372900965186 213.66844489587154
192.35468100699106 266.9371663370876 271.7057565542268
192.53746066535285 255.73314499515854 232.58793491082758
263.88374018970273 201.48755592189576 257.76869314869253
296.2190631697749 232.5210556788779 228.88508818637672
266.6379410563092 269.5583904879898 301.05263503484395
257.5265972747249 249.20772660266053 243.4637444719494
263.76869206421753 272.4689929056499 293.35535226352965
290.02035684426374 235.72317056163885 230.93048609236143
262.131301009566 208.50243551994652 253.9718398893923
200.6588205703332 259.3160546659036 236.02600682194466
199.38238556216373 271.1788487727318 267.7670771834995
242.43911009988003 220.56034652969947 218.27196543624447
257.5265972747249 249.20772660266053 243.4637444719494
245.65893245508659 226.447191762337 223.31497086096752
206.8550230866156 275.1384211474472 263.5538846085986
208.61351945957384 263.1945714768194 238.99874113199635
260.4197369617393 215.63480709919716 250.42673202773975
283.88381327449355 238.97657974470854 233.2807930740425
260.9737649163458 275.2519439751422 285.3770441961359
257.5265972747249 249.20772660266053 243.4637444719494
258.11509202281195 278.06026772810964 277.2409760225657
277.3556697779844 242.23872689935973 235.47283078396222
258.970944938038 223.07723658376423 247.44328846121587
216.71539038539797 267.17118905182167 241.6804908183976
214.43096510900529 278.9774071511138 259.0803539225679
249.24635894925103 231.99635650436392 228.85075156590963
257.5265972747249 249.20772660266053 243.4637444719494
252.8907562611964 236.9592071886077 235.52102403554397
222.75590085353684 281.8185118199595 254.64517378727143
224.86357637304096 271.0182942042141 243.76680796197087
258.14091392147316 230.44603027201725 244.9257505909019
270.51356497354743 245.37813263325185 237.95524342982915
255.5119428530048 280.6007003181638 268.75434173275255
257.5265972747249 249.20772660266053 243.4637444719494
252.91516793327895 282.957692679334 259.7218903760389
263.88147480372345 246.6852454964958 241.18480572910894
258.03984805846295 237.20531972823576 244.30102737429846
232.99070255358694 274.791571923798 246.4556177827944
231.89296880034186 283.6356100522573 251.07134481078904
257.5265972747249 249.20772660266053 243.4637444719494
239.86428882303971 286.5616340327037 251.22047090137593
243.55966859396153 284.5373264727948 250.8535596629852
257.7348207001308 243.4028399783869 243.79547589441307
257.5265972747249 249.20772660266053 243.4637444719494
249.77734893807073 286.7557665099688 250.31127391384769
249.90966989576245 293.19288994530916 250.14493029931575
250 300 250
250 350 250
250 400 250
250 450 250
250 500 250
