118.34075080506449 199.01319169986135 309.69588737508013
344.9720476893322 191.80479033138343 83.21750492779063
112.12838073938295 221.4828805907233 101.3058007873103
42.168967531047116 88.31444354357336 164.65923669873962
464.76384115740575 109.69576309254006 55.91780182801618
51.69788314579289 213.05638517032915 97.58334442956823
84.71938598922613 125.71531829273223 232.35496197905013
421.0818908581761 179.95822597075488 496.1814457286237
434.9451309695402 226.07415869207148 416.00033478387144
408.3294262600808 17.384836433220737 427.07816211771
267.9958173226538 59.36433622880134 165.20341862681548
88.66900892015894 47.23607729501508 246.41127065255074
108.24256621859426 44.198696176305454 372.17087136798955
76.02128117940562 65.12330804027923 447.34533690513007
144.7011630693889 8.691493464128076 328.61496584067794
439.9938300829458 244.95992184620394 419.83285349083815
182.0965830054769 36.499143435176364 292.0757205530099
118.34075080506449 199.01319169986135 309.69588737508013
344.9720476893322 191.80479033138343 83.21750492779063
112.12838073938295 221.4828805907233 101.3058007873103
42.168967531047116 88.31444354357336 164.65923669873962
464.76384115740575 109.69576309254006 55.91780182801618
51.69788314579289 213.05638517032915 97.58334442956823
84.71938598922613 125.71531829273223 232.35496197905013
421.0818908581761 179.95822597075488 496.1814457286237
237.14007896379803 81.83456796898842 177.16529419485985
167.8307107866633 31.591358966873564 304.78947953920226
434.2406896266239 235.31474665528708 412.67485924096087
155.7843277519971 21.071404988985268 316.7605094067904
410.2775886671468 27.206256869068433 324.4363594673257
80.64481337437202 99.74042232909493 439.09957606024176
112.95382115239813 45.6252915864307 376.52078470145403
408.3294262600808 17.384836433220737 427.07816211771
86.32825851269803 48.08615879959555 249.79907331436615
252.49028575314784 70.49260687288486 171.2004994720598
118.34075080506449 199.01319169986135 309.69588737508013
344.9720476893322 191.80479033138343 83.21750492779063
112.12838073938295 221.4828805907233 101.3058007873103
42.168967531047116 88.31444354357336 164.65923669873962
464.76384115740575 109.69576309254006 55.91780182801618
51.69788314579289 213.05638517032915 97.58334442956823
84.71938598922613 125.71531829273223 232.35496197905013
421.0818908581761 179.95822597075488 496.1814457286237
79.29020498413108 56.87823400156806 264.100351816916
66.462759698985 63.055514428884294 89.8209618873871
398.4304240670154 38.00356953432083 229.92145292526783
244.20797325085348 75.3370702411256 174.3098697315396
74.92499164639838 56.19763099576578 73.26603464317502
84.96424740769142 49.54594716959926 254.41998289501106
397.9972160376469 31.85320262882492 396.7502965950388
446.01790471947 176.90009557823822 342.3123186115542
120.08031099566622 47.33796650010636 381.66613731046453
82.03727269706167 125.11744142325982 432.89851785579486
259.9614195911704 11.630000048810295 54.470807937413085
412.54698112811707 37.00472257898166 311.30463485201705
311.4831384389539 32.84238247643477 436.16527758767586
159.9660057883526 29.658393378915182 311.069105476665
430.59752948423073 235.37342121798474 406.6929955255518
118.34075080506449 199.01319169986135 309.69588737508013
344.9720476893322 191.80479033138343 83.21750492779063
112.12838073938295 221.4828805907233 101.3058007873103
42.168967531047116 88.31444354357336 164.65923669873962
464.76384115740575 109.69576309254006 55.91780182801618
51.69788314579289 213.05638517032915 97.58334442956823
84.71938598922613 125.71531829273223 232.35496197905013
421.0818908581761 179.95822597075488 496.1814457286237
336.3086597460398 47.8800668771748 392.01972101121896
426.90265918123373 234.72516731142304 396.59771031142225
157.8571600792069 33.373658617868195 311.4353929011335
281.4745756051354 44.143684630153096 427.6124284648443
355.6597290786321 47.00691119972022 276.2081737640301
413.2523942425076 47.060479151156436 298.5552875354544
241.85861227413142 27.999723615803838 61.510400064056
81.12528898501125 141.01045140547964 428.87532867040784
129.086375972358 49.10211783727467 385.8286866418835
441.1186476700397 196.03630061610892 358.0311621088893
387.666224861042 48.575256580326375 376.16516631524706
86.2123994017367 51.47159188204615 259.01358567207507
362.8302675075064 62.320169509858204 450.42503643537157
74.75462717687658 64.01054126172892 83.82666694178674
243.4911525955434 74.3506324898646 174.45884723873002
56.31081558594806 168.68091204442297 425.61796755224145
405.97725957358506 47.25129990259855 253.55226459267433
243.1448497114776 80.31709571318723 426.78217795376
118.34075080506449 199.01319169986135 309.69588737508013
344.9720476893322 191.80479033138343 83.21750492779063
112.12838073938295 221.4828805907233 101.3058007873103
42.168967531047116 88.31444354357336 164.65923669873962
464.76384115740575 109.69576309254006 55.91780182801618
51.69788314579289 213.05638517032915 97.58334442956823
84.71938598922613 125.71531829273223 232.35496197905013
421.0818908581761 179.95822597075488 496.1814457286237
245.48862614809258 63.06219230465459 416.7077443181645
409.58203993654763 59.95567665403183 268.6676903600421
77.0134922125524 166.59531460442193 418.6340491343863
153.31157500974902 44.45555582812551 385.7998525658379
212.87621625351892 -1.6991168611863685 384.66649593382203
242.76940782854857 72.79039560576602 175.6105131443161
205.13286766040784 121.87618159956934 86.82398932676053
79.86220319646625 69.22603129620437 86.30047339001341
350.55482218235 88.28913722203225 431.7227212317743
91.89654406769378 53.37728092352584 261.22682983766595
379.60346607282116 62.75657672193773 364.9821524748304
437.90915030409786 208.9289461728663 366.123559696244
138.53423979735115 50.495489989784176 386.4719089105581
80.8638033107485 154.03172099347998 425.1531230955027
233.57003684422713 43.588831908506656 70.30255952438205
412.0528404278576 56.12149842142105 288.05636415772955
342.22014514500734 36.54147287645414 277.54432543009
260.5932752914573 51.381849248676225 419.4885225300078
154.00093110968555 39.67717482157858 311.59000626706734
425.14532529937605 232.58658756546095 384.67866833728175
354.17372335300274 69.62978917155579 380.19953010026694
118.34075080506449 199.01319169986135 309.69588737508013
344.9720476893322 191.80479033138343 83.21750492779063
112.12838073938295 221.4828805907233 101.3058007873103
42.168967531047116 88.31444354357336 164.65923669873962
464.76384115740575 109.69576309254006 55.91780182801618
51.69788314579289 213.05638517032915 97.58334442956823
84.71938598922613 125.71531829273223 232.35496197905013
421.0818908581761 179.95822597075488 496.1814457286237
113.22644546155837 56.42305777087175 260.78039755484815
367.1074973974163 82.71631376552784 369.173938996715
427.2287755347653 229.01399586608795 374.1045452020421
309.052139008077 171.23200730984263 419.28269150545236
148.732591602171 48.17416459136669 311.0874550714976
248.8440987356556 54.92745953383387 413.0877991641332
228.5210276764444 43.777064340487044 207.21403450623382
331.07996618853065 35.80639291210294 279.06175852973223
411.0447354512024 65.56314421720036 278.7510151714955
234.07443247312233 54.55160875091948 77.96303118713658
84.9534402472158 160.96928980045274 421.22760354186823
147.7335960149935 52.82524316370752 387.1662040639039
319.6835051778818 4.36143893767122 140.3063262788476
434.80518281437884 219.41646255372126 370.00461929135065
374.4790752535661 72.82395342564203 362.4270852654875
98.9801385423162 55.73618540857836 264.28300948030744
337.5634040594598 106.7571962888839 419.59488337983265
86.46060363809765 78.30093995846481 89.51127909613132
72.19882114996325 15.98536745760731 152.8546941401025
427.62655440790184 192.73744240930995 262.4541687157675
176.27459966760128 229.44584768345342 456.47944914745926
218.57014840896736 97.9696064721504 87.92973313607708
302.9497106315851 4.146951525289946 277.9682064052883
242.54484706470075 71.21262894205088 177.9407535535251
224.77065305439956 23.67215026326237 394.1915456868784
118.34075080506449 199.01319169986135 309.69588737508013
344.9720476893322 191.80479033138343 83.21750492779063
112.12838073938295 221.4828805907233 101.3058007873103
42.168967531047116 88.31444354357336 164.65923669873962
464.76384115740575 109.69576309254006 55.91780182801618
51.69788314579289 213.05638517032915 97.58334442956823
133.995309309562 70.27057568094547 314.07326131424617
84.71938598922613 125.71531829273223 232.35496197905013
230.6708296602946 43.578337931731404 397.8683691058536
243.46788146011946 70.70584007653126 180.9643510188575
304.4696357958219 24.462016063589893 277.6995923682792
230.30673401563556 82.63336098912686 93.89933198237252
385.7808708448754 84.00979364613237 192.02401360704135
170.49719532765562 212.03982877879747 432.53841118907945
319.7754395693505 212.097667788521 423.58203314179394
421.0818908581761 179.95822597075488 496.1814457286237
412.210575977203 175.8555667784912 243.02248295707565
58.350285113367235 35.676076707511086 151.0382535181676
91.68031376753827 89.45315761497478 92.88711269051983
327.1065218008217 117.52249476219609 413.31884928326724
106.52739112766555 58.65045005148582 268.2457037696465
374.00713493855073 81.00842404981148 362.0344963859534
432.4817992333875 224.2818860758656 366.6959666681351
331.5121875253583 26.399418671186226 148.6772884065215
153.52911227137503 57.0810176450005 388.0246803162644
90.75050048651305 165.20794230751795 418.79099523355745
110.74177836074779 40.96421006565555 129.15449472879288
209.56265517193472 217.62909299962817 434.0321256025692
234.43006909033275 65.5249356958425 86.7001008903828
409.73099685251873 71.6535683565635 274.4533641398402
319.15133126762015 34.53482031778522 278.3443843754888
162.81572916515373 63.161843314260814 67.25656785347363
237.04434480829985 59.35731265915925 191.68235078838563
242.03989611161782 53.93987204113918 407.1882522548044
143.00171831820776 57.537164265214614 309.44859823676165
313.18758440699503 150.98702881846768 414.0925313751866
99.21147029262474 126.77238207900184 68.3529902696886
381.0255450396924 142.89599719074442 203.79292246261977
118.34075080506449 199.01319169986135 309.69588737508013
344.9720476893322 191.80479033138343 83.21750492779063
112.12838073938295 221.4828805907233 101.3058007873103
42.168967531047116 88.31444354357336 164.65923669873962
464.76384115740575 109.69576309254006 55.91780182801618
51.69788314579289 213.05638517032915 97.58334442956823
155.20019546505878 188.64642764882714 400.368216255467
289.86584781509106 196.23338928037467 445.4264974765509
391.67811728073207 152.9945849143773 217.38830936455398
96.36868678119095 117.18302733406868 89.17976919956617
310.24064300598906 137.73727088591232 409.8545721426992
138.1663643089186 65.73568962336421 306.23710753941697
84.71938598922613 125.71531829273223 232.35496197905013
284.0865816239795 181.7875533796089 365.030781897156
235.42428087528603 53.66856008996892 401.07911061122877
243.13200592335195 69.152074531825 183.9349927543
163.56922216285994 50.94278950934028 86.81424898397887
307.4938718390755 34.45351260542632 277.7031468291785
406.97606811226797 80.04098135841912 271.26083214855237
235.52116869170274 73.87402582888132 95.12925990461957
221.48466713927493 203.81334262957603 421.405350972575
103.00321773172276 49.78550577886597 138.2914140837599
98.03407095298186 170.7628354544714 415.7607653143923
159.12642574901557 62.08622406580399 386.64538326804035
338.6651984023713 42.47752759279556 150.52000144231113
431.3848823618369 227.8401329721842 362.1704428364054
374.3842236592456 88.12565199749096 361.15810202739766
111.93307347501133 61.83732719310207 273.41372813197
46.06249562072697 308.5192721406516 214.57982103500822
317.76652151793746 125.69416787521605 408.0659531189482
92.89864857079556 100.33546275564696 95.59610170289713
53.517226477979094 52.1394970121862 152.10378674974262
401.95428232292295 164.2424764838004 230.34487404794626
410.4237520917882 184.41794117408125 464.04124842592114
304.0586885359707 204.2153614890364 433.8874697377055
160.4903534644558 199.96009781519254 415.92830188987404
396.0643805053924 109.04249787296975 379.3944920292822
368.20378642465033 74.67063074036955 173.44819733740874
230.02024603773265 183.5105487062456 382.4478245574739
118.34075080506449 199.01319169986135 309.69588737508013
344.9720476893322 191.80479033138343 83.21750492779063
112.12838073938295 221.4828805907233 101.3058007873103
42.168967531047116 88.31444354357336 164.65923669873962
248.76746112805537 174.43859599248637 382.3659900616516
464.76384115740575 109.69576309254006 55.91780182801618
239.85369943697023 184.08352355347057 422.0461653159921
51.69788314579289 213.05638517032915 97.58334442956823
355.3438399242128 73.65005392145667 157.7963741186177
381.9779146979764 107.79101933872158 364.9178904979285
150.60815294667614 193.7596685697541 407.40634910756273
293.6297565188238 200.5037088679605 436.8007065293408
397.5977755273992 181.51612724354774 425.4894703436533
396.8465718870791 158.10383891937607 224.2644204459864
51.06977121859231 69.11494586065066 151.36650382473417
94.18518089253762 110.68268156618616 99.86834406136575
311.00682523955004 128.73786177833068 405.3644842726642
46.332593983977034 280.6051489619888 203.302224158569
117.95149434338565 65.69860742739763 279.40432509792856
374.77819024808053 96.42279780543886 359.7972020741525
430.1255469174129 232.01161940774568 356.72480913063634
344.6472114736757 57.73933693486549 151.4233590047442
166.1582501907931 67.8489638872517 385.4799418768758
106.0325996711211 177.39339172137235 412.234618965108
104.53676653040779 57.818328060579866 143.76687247233733
230.67908519798888 195.53197787282656 416.64818925255884
238.1872630827663 76.36968203696694 101.5480271650774
404.02059598226157 90.29974861331793 268.1942756404337
299.2556821291679 37.38777011398117 277.2008340196664
164.52544555084884 48.63356887823656 105.04750312292299
246.04785784694695 72.63248307522412 183.26354939509332
231.43008791206125 56.2804520014958 396.88984269257855
266.6440478496291 177.76070377012525 374.0962898008313
192.427602786462 -12.070055696035933 291.3415730960477
70.73492732312492 135.33289607902708 254.96053615396647
136.18281549195032 69.8767772172734 300.9750292668088
118.34075080506449 199.01319169986135 309.69588737508013
344.9720476893322 191.80479033138343 83.21750492779063
112.12838073938295 221.4828805907233 101.3058007873103
42.168967531047116 88.31444354357336 164.65923669873962
49.67641850545169 240.1455955695113 192.6108227730085
134.0749997065956 75.15369545090792 294.9048254871228
166.1694060942999 52.94991797994098 133.67109516600863
66.71500349881407 145.6645019423514 278.0113173503454
221.9205270922433 12.518247265265 285.3807618148928
258.7908759916389 174.22178663794648 380.3678650040554
227.6744375248177 60.92898165904446 392.07004330062745
250.20778902914515 78.00555207651645 182.53632762100617
165.31460923475416 53.75345115300979 116.58893231876212
214.12613533570956 89.26505439914555 251.10219056996797
464.76384115740575 109.69576309254006 55.91780182801618
290.0829782153101 41.130628080108316 276.6499605497322
400.963062359269 101.64260208505534 265.0736373412684
241.3033334384147 78.89737838376368 109.08877078700225
235.60012578616872 193.26339594234094 418.64267086424485
106.96138050573478 67.53976639319255 149.27421358780242
51.69788314579289 213.05638517032915 97.58334442956823
114.03161694914122 184.58515418006198 408.42049483425075
174.11267448741808 73.5652444536518 385.5737630682184
348.4999186614146 70.64435801637784 150.76799875613213
428.6717090092424 236.77366881773838 350.4542503018115
374.8356526607605 105.39826594073256 358.02238004770504
124.28495753163715 70.16669740921122 285.47279654444736
49.12049183896084 258.88218131088115 199.46305984235704
111.63925886342456 130.84751571519013 328.94339935898563
305.0585232487567 129.08595361066722 401.7282060167927
94.64809005992076 116.89804515567849 106.51808887771887
50.455848675226946 85.2264785258102 151.7210330453029
396.88030302946373 157.54521518334903 224.6977233771308
387.3851801823312 173.13629036397026 394.8851134262822
198.56620354062946 136.54852448422443 433.73852905660084
289.8627843614914 200.8612197759711 433.4641274037052
142.70669980050002 193.3232249458824 406.8123916332885
104.9124592520128 78.97804219772354 175.81263974956448
272.62452188695056 71.06058492769614 132.5446264831573
243.1161920653478 105.18202146171451 301.14057598680057
281.6257774863318 104.27460248265838 197.48747682900387
118.34075080506449 199.01319169986135 309.69588737508013
266.8254479989436 96.20553411670333 185.9393276114619
233.21473467642895 99.18034028821816 284.83093794074404
393.34974218637353 130.48998611917756 265.30899769333865
255.64260182519976 80.4927072795214 128.88167235380078
111.79324401452212 83.4057110109828 162.9507106435652
132.48314142730587 195.28842011092533 403.90271226715873
344.9720476893322 191.80479033138343 83.21750492779063
272.80141461097145 76.63320555565952 328.64798797727263
282.51163796344207 202.42667655985235 427.5538267530724
198.98056458138632 121.97985750451338 421.03401483142835
380.2950733057987 163.49144001276665 373.6961591386698
120.31910662065347 119.32414129573739 306.28658002654157
396.68798931271215 156.78034980092286 225.47683253488876
112.12838073938295 221.4828805907233 101.3058007873103
52.480164807531146 98.50942218747953 153.4840677822441
94.20602522924678 123.10631639982296 116.35954146384769
360.8370771067204 104.49697387521215 73.50278444658015
298.32761729730277 129.61561607959456 397.25024670231545
103.03760563738574 140.44459220027602 316.8297249027314
52.77114060057808 245.636108479378 200.85819730293113
129.64164476765606 75.53102844649409 289.38838788209233
373.5817972612079 113.18551157780772 355.2839130383623
427.0227752151265 242.0434488968276 343.50362200256313
348.53744483593186 78.38639038058386 147.6411375506039
182.75875159748477 79.37227361439143 385.26588566027516
120.86080450426671 191.56512285276352 404.5956047021592
56.4937121906594 213.77494146285503 98.85492528089092
110.48832102522502 77.35044968533931 153.58832321524184
237.8284320340027 195.13420276192736 418.7975882370842
244.50610402842207 81.57977379545008 117.39914235443095
397.9440126918462 113.22397234731865 261.688902777568
280.2122822853823 45.46805013517276 276.0963756325763
462.1186398340722 133.01243450744775 62.83465396038794
223.67790226237767 94.10703432216346 267.9998473914171
166.06832851253088 59.97203569665726 126.42366718396778
255.01474630456931 84.88825245103757 181.5077327768276
82.79579047450102 256.8396388971064 398.2705318923277
223.67658612913993 66.45034950250607 386.4845153941205
260.08832327406856 172.04036096180565 382.8416268503901
241.86499162893745 34.38630030698138 280.61458705298725
70.25083686346215 153.59673521140675 294.96672780694433
118.34075080506449 199.01319169986135 309.69588737508013
78.6775550870374 158.11104926847062 303.89735954030004
253.2079370371037 51.355532938936385 277.2680697407767
262.29868892507204 165.8046133686331 384.82469554377076
220.5021719506681 73.60674250041352 380.0732778120254
94.96615710112786 243.0124071030321 395.73724469603735
258.93226599016583 91.70896670202974 179.89215007492098
88.8520244439413 247.56933908571918 42.34057684938446
166.56709871775936 67.04575991177808 130.6271174371525
228.47856907413367 96.13298800367407 276.5610155092678
453.542318621113 156.32388229208314 77.8027041134628
270.28046094995585 50.38616035744244 275.6627864890508
395.27507282018195 123.71172251520002 257.73664686790687
246.93108019386176 84.54099174665187 125.53517496674117
241.66129830747275 198.5643427545766 418.3075709072714
115.68514486981677 84.77108144700112 154.2350603361187
65.9084461362526 215.13596832051076 102.32367638002873
122.71425650778528 196.18431545528927 401.53752194105493
191.80163699324592 84.32007790810282 383.64889902457554
348.14108346741625 87.07143703529171 144.06762989700073
425.20521626809534 247.70290897312833 336.00355199971244
372.01279084313745 121.70839898931777 352.2532452628504
133.0393975585987 80.51313460747946 290.02636457682036
56.4627056692924 241.57305703335075 206.21192593836855
344.9720476893322 191.80479033138343 83.21750492779063
94.2247157448406 152.08634396789296 308.4480494538882
291.9855104864414 131.89741331164018 392.29774608613224
188.11593931526855 30.878631886861694 167.44467512489734
351.6777372115055 117.66732789500307 78.01474109759074
96.16105839617084 129.33214929921684 126.4654089920188
62.558580468873274 115.00321302906116 150.07232450254494
108.26720015676825 212.5653051590146 125.35740452629643
324.4088409414083 203.52810354428905 75.70132354517885
396.1179955416013 155.9034652253633 226.6373154941186
126.82544752902814 109.68310400886637 300.66852631358495
376.3583819398981 154.16679024628885 361.99158370277183
200.96125699728796 110.35960795914515 405.18813600479587
272.17824083998653 205.2118782891029 420.447832101196
266.8378315633539 67.43844173937542 303.16370002594726
118.34075080506449 199.01319169986135 309.69588737508013
259.05878034105376 65.13195458650176 284.6976540136711
260.7619861409828 209.07141335027026 413.89179532217304
204.89992066741303 102.86257553964413 385.82477192972317
371.1287184071977 146.47569718693325 350.5144189591562
136.50441412919344 100.05519793579201 295.08167288282226
92.69808847393455 171.754748724491 146.26241871364257
395.0171127184328 155.14707207224038 228.10164994969767
299.31802315003756 191.6712155485902 85.37999288036448
109.07611088082623 196.08709917985468 144.82347526329818
80.38261215666058 145.28822511871564 144.45674620836425
103.7793525379988 134.25460240846905 135.27205716339205
352.22694091725253 128.4784983111889 82.1042834108936
173.53251829562956 52.502765334959776 181.73861667543216
285.8190517423854 135.09431481080708 386.6371363609563
90.64944946196566 159.85883671816555 307.65558566239935
349.8347237336875 205.31057679904188 71.25796565263597
431.66258789380004 234.98772414566693 79.8008932212818
62.16076262339883 235.67714991270023 213.09112255972437
136.95303687221616 86.13473123868924 289.8103515056361
370.23436192914625 130.51960966590366 348.98381148816736
423.26186516991476 253.58777300182038 327.97410956182836
347.3251436057203 96.579160340236 140.8082527810623
199.58267915752904 90.51168641834774 381.365642372082
122.751563762287 200.74754812505 398.20584415364107
77.22720951822897 216.5376935511233 107.38516754059245
120.41738082466844 90.62676612338213 155.8691718063437
246.69023597985387 203.73732666222168 416.3833653121511
246.4836740185537 87.92176928531974 131.11689942094426
393.7710041570184 129.945918816395 252.6096385444053
262.0818535584375 56.44528786376091 275.72323801531974
442.68876862265273 170.05200948904312 94.49533988990407
228.51500044739123 95.54640494863834 276.7271426810152
167.1714821371898 76.34520553461921 136.35536071337316
110.89812268001413 253.53920619327567 62.96493852898212
258.6732837842292 94.97048776333556 177.40747440702722
106.75417780311818 230.62843203684062 392.4299276803402
217.11343744075543 82.34371478275942 373.9936942755975
69.2721765238943 207.95347444830998 249.0120256802846
264.683117087529 156.12810261900145 384.4255763559695
249.70061846033866 170.65711425106326 107.89274531934376
118.34075080506449 199.01319169986135 309.69588737508013
263.3856278794866 179.16730321816087 97.86966026721511
266.73284476060275 145.79076238650032 379.7864204325413
74.01907481043756 219.90266282556178 233.67370446417465
213.60328980465422 94.53789812719955 370.2452665834845
117.40052019381412 220.82031133446947 388.39125318638474
137.77690257300912 258.6559592989176 96.80883747419425
259.601988851503 270.40851351767174 437.11914987223025
257.58568096070707 99.3330789249732 173.20672113225012
123.96360960642652 255.17278601034556 82.85090123839949
167.7556372972286 86.804035510336 143.4299201516525
228.8744634959902 94.64782011357669 276.80395745498106
433.1811528776553 174.39068155067835 108.02149603636516
256.54048379576756 62.5284094344426 275.41680124247705
392.478817410306 137.1507937881441 245.99452027819203
245.77045740443194 91.94434930529002 137.48320902571623
249.68615479261328 209.03874466615298 412.84645770175507
275.0110555587922 143.4820463464589 85.96777217020136
125.89502394371158 96.57273979276104 158.19368127675452
86.95471745053999 217.54312610822876 112.91544175645234
122.95371855320126 206.3100968034669 393.65364352902077
205.24512912577902 96.43260757486203 377.83909185979996
346.0168960974112 106.45738231784338 139.58614660331347
421.26972266927186 259.28331313532055 318.9373787653967
368.22277589083643 137.5821368496277 345.10389591261685
141.26784697324234 92.15612179789895 289.48241499050056
68.9418904977831 229.52245348390923 219.88424561254777
417.859401577603 230.65273290137264 92.20554744762202
354.3150047671409 224.62951069193636 67.42622380778856
90.19521027256998 167.14535252119478 308.6603777566911
279.4473214821995 137.86662783750648 380.4127773623154
167.8006967477172 72.97126307907732 200.53962966003743
352.2544734413262 140.68918059411894 86.62778354330972
111.8676535429062 138.2591916382536 145.1830643499571
92.69808847393455 171.754748724491 146.26241871364257
114.06235113384598 176.026337428508 155.93998241016928
280.90875917960966 186.32340088757437 91.45466403830824
393.2896275362325 154.92862379781957 229.60138428900484
118.34075080506449 199.01319169986135 309.69588737508013
390.99013731942705 155.87227077424745 230.59689090269023
270.62531554869423 185.70468628816292 94.12248086750552
121.85809932004868 156.52486908806384 157.4755785328265
99.33172683845554 191.65016662720265 153.0216038430917
117.87852416128709 142.45505987405642 151.03661101090407
351.59674567709595 152.95173260928243 91.02083802861233
171.11030699840842 89.43813019697208 220.83712631059976
273.2746461791411 138.72240788586998 375.08639451240043
92.71718137707055 176.1363527020328 309.0558116569834
356.5030308567209 241.08926960289995 72.8988188922977
55.78530086033376 237.14496770447727 306.86431791916954
404.0743520182437 226.95394163546734 104.63035357584965
75.65635120446458 225.5579254974595 225.12211931257747
146.1941010246122 96.39577509556418 288.57907864163735
364.8779596530468 141.72544362780408 341.53894347760934
419.47896704436295 263.0119649359108 305.8043140416311
344.6130722622598 117.03362625689034 138.07801359778975
208.09074222685962 102.10194293327955 373.8140706195997
123.41659217786277 212.22130741835403 388.55482894968713
92.76884109277844 221.0449415526138 118.17776679189193
131.77802015750126 102.92160167206178 160.71957631448961
272.4755222106545 168.3639593720973 90.81870601368698
250.4212570876267 213.94844584373965 409.4165698759073
244.67688136617454 96.76991431707134 144.1559158115092
391.088137181528 145.6577206369965 238.97495340582444
252.32965375801302 67.31904506398895 275.1032154280002
423.27575627316855 179.62058491763915 123.67296798082754
406.3127640835414 283.22477215934356 140.93880878530513
229.68464251779156 93.61715617790959 276.6626083922163
168.11093855628843 97.69196302945406 151.17780710058196
128.79928431601857 253.87349329705916 97.87184086497786
415.4532390457605 281.5514358989045 218.6309963039014
254.85087254596962 104.44077771526898 167.08196043489187
255.05578379428863 246.61110260320444 420.96386757403474
118.34075080506449 199.01319169986135 309.69588737508013
251.30523870167997 232.647612430906 406.4398204083279
248.7400815243913 109.03814926490588 159.02302939529375
409.77642004193484 286.11955802036135 228.91029119696523
126.30027543040266 250.4907123631293 106.42273463448325
167.84096183668558 108.5743326694693 158.90772627227116
230.95550428283113 92.88476758037129 276.1654754704826
384.75852535681247 276.77103443772273 148.09579521880192
56.49418514311236 303.15498815547886 130.40209441398952
413.30907274138207 184.33561102965757 140.99678842827305
247.89137688051338 72.65803525770878 274.71842047308047
390.00560765986904 154.05049655065235 232.8234744009128
242.5637425700991 102.89148982235854 149.2644783728352
250.06245077648032 219.12409062170974 405.46292766566717
270.35789668046135 183.55148708208185 93.25215223417725
137.9411068619803 109.58325363215508 163.43817449279615
98.67252719259788 225.66286958734906 123.75086031887876
125.43131143388732 215.76655561107836 383.5886707672305
210.2102609724621 107.28630443537031 369.77264501881655
343.20562334787417 127.67596720204578 137.09382255005863
417.310690752486 265.85746505417063 289.1625142923591
360.69376015108077 144.9936522625004 338.1700352973084
151.65707590778086 100.31071214633954 287.0528262101619
80.70548759907336 227.0191656643932 226.87256275788616
390.77441744671523 224.03140260272653 116.59189135624659
68.10314583419371 255.14294129436658 318.490635883102
356.1155044311185 249.62321459478503 83.89843876069185
101.61235074168016 188.17260865016723 308.55649486805436
268.45745287433243 138.49344782768443 369.47338968947804
171.98379696695596 97.60698742603216 236.11383120530024
349.58707717908885 163.6772311953957 94.48812586243321
124.70132329540574 145.99488673636117 157.01357741418246
105.38528060033892 214.3114975253647 150.18843643755852
108.62486506058585 230.75775606757742 140.04401384705457
131.25066508034425 146.45924245130405 161.9120477961225
344.36041901176264 171.98878166123447 104.6333700167354
173.69857509146206 102.82578782073809 251.20176775580578
263.47838782862124 137.42349856637114 363.1952923563798
121.05560413194465 204.67781853168407 301.9792176133733
351.07908548140756 257.2078107868107 97.67509217942845
82.75946568852717 265.94609349613347 323.57737584639784
378.60324445932395 222.28280760257715 127.47951686925555
87.21457101023466 228.60099298957496 228.39824044741087
157.72267323988575 103.41957770159574 285.3896081141114
356.83191168961105 148.83666580748493 334.79106018537817
414.5247222644056 269.77464631463954 275.44581131390913
341.96980678866674 136.76381740816123 138.7972813774963
212.52113383348714 112.88451153081665 365.257727486203
127.83368964191163 219.63155372919928 378.13775867680334
103.86375350554675 231.7982390268393 128.43621344914143
144.09984740609391 116.5238584212806 166.28975253856976
268.941801387209 189.00194980542662 93.51824505187153
249.56601923184456 224.5062747443346 400.8828168684759
240.6766799420408 109.00472644493776 153.0774602060229
388.4490922156805 158.77631044372822 230.21825043182963
243.96087093275543 79.14506148052786 274.25677151508006
403.2236083510391 187.70579085401033 160.5976399976048
78.68395336734109 284.6526151905399 145.351848602468
373.04865765430554 271.60853747057877 156.44486237583894
232.45905796774963 93.14551420757358 275.23215107188685
166.01366621268178 118.79514609016788 165.559733620684
122.55575661969402 248.11736736919954 118.61895103136773
409.0363951092317 282.71762718719026 235.7101723176018
181.50107699263194 113.23488476511369 289.2960807548256
406.6082404934453 277.80720770723286 243.81708342506357
117.65778559126392 248.16438316586587 132.00361812411745
160.28690568199957 126.57762390200816 168.60243241492043
257.86147153544806 206.13983621045395 89.31005813341245
233.6188407400148 95.24867688670746 273.94084987238205
361.4039753295696 261.87386245939103 162.48371843427836
93.90259774431279 269.50156230726475 153.9634574773361
392.7444891505912 188.79853957456592 183.9973239437585
216.0821826434448 185.37889004527992 136.95632688967385
239.81166955697935 86.14231406564497 273.75497943153545
386.42378141827123 164.4913398410631 227.27683127729685
237.97410467815115 114.92366818105167 155.91955652053733
248.77639309431697 227.87272260340077 395.66771594892884
266.6150870158681 196.43070052081103 94.83002184632069
148.37024548647221 124.03794871812786 168.92820435094262
108.85221002617399 237.3460637790102 133.94698330227828
130.7219829828616 224.2248388734615 373.06048903552625
215.0256255753431 118.80298243535049 360.3164829588642
339.24875685136965 143.69980628910565 142.89593295237606
410.2181088037729 273.0469214056734 261.2899702494335
353.2955331774824 152.10468185413274 330.62964398604043
164.2381784263639 106.80744271972605 283.60776654609964
94.83580360383166 230.48478648619098 229.35098991178066
368.79783145936597 222.4666974070126 136.14124084074626
95.0579770001567 268.95774916718375 322.8560764944184
340.46857138326965 260.74713939303433 113.24909744183142
132.04096881853653 215.96360915973676 294.29659817961146
258.47868871099905 136.71261787111632 356.0994504263969
178.35862246799658 109.09749798468975 270.0004554173241
336.42686454172787 170.80357276413557 127.63240672053232
139.14619584864352 146.24164876069972 167.2289336222882
149.3811801348952 143.7968096257146 172.49068611733367
333.32685089690773 162.5210178818536 145.5065470295141
182.26082849911614 114.44464654186918 278.87085710741394
123.27193689663316 281.3695538867323 321.4872533819593
312.506220889523 257.4464903428941 146.9883702641593
252.8529419684366 136.2004601307767 348.52190074841286
139.1306287895809 231.125412660881 271.6102394445867
322.8611358560237 257.31376371861927 129.91255317802282
108.86948623901608 271.6200824940562 323.6125399470829
362.10443187043165 222.11214744580104 144.6483696916815
102.52850887929114 233.44255063375735 228.5119985731176
171.1422265546547 110.44670613423548 281.7252573427609
349.48542844453175 155.5861128366798 326.25002244331785
406.10666230451056 274.5907184297195 251.14227555277785
336.19989482231847 150.25769817524318 147.73041564659462
217.69454959704066 124.96084685241618 355.0202726327868
133.99873511750357 229.07278845529612 367.3853759883684
112.55115338015639 242.83063661011366 138.8663076389024
152.28160843345557 130.7078304192779 171.95604219778696
264.4583362788891 204.46938780733217 96.83837420462673
247.6870144335951 231.701180087003 389.78543254494565
235.05668633885352 121.43618890819808 158.98106524284202
383.91097751361747 171.08370054977019 224.08178827116475
235.73621022191432 93.444228155498 273.2277309118936
232.4861288910832 178.71615630592197 149.82785053071683
386.4972300216684 190.71899594856188 198.37446609862806
102.15837830599908 259.0315782887232 157.1339155756303
352.250549579312 247.38876897118556 164.23110961376244
348.36580283466594 227.50001108053885 159.19677412153652
111.33570582967968 253.01782453226534 155.8069863548674
381.34026658300905 189.5518801827041 210.0253009966504
239.4991575503064 170.02670310853537 159.923932749924
233.4743122010637 99.89787966297189 272.64585903592393
380.9737035542522 178.16343668539912 221.04733906234873
231.93989591288386 128.4705352644653 162.29150535432106
245.69842113162437 236.39923363088147 383.69301762504256
264.0980515150413 211.0364755466678 100.4848522162925
156.072922687344 136.83760981005082 175.2174470427503
115.57912708791982 247.56861311055638 144.42597581187928
137.58481255466333 234.09144472027288 361.2424191359285
220.41349622840434 131.24771714900328 349.42655658673004
333.03817511716557 157.0221609897782 152.73197864679085
402.80314830382537 273.3100221819171 249.2703320295231
345.9428835004449 159.58477513174603 321.8229172926508
178.3182803864872 114.2884846861258 279.77306277781724
110.70066118584407 236.5897645148223 227.20527703505354
355.49558946176234 219.19725195072985 150.74870447183483
121.2631645415668 272.31165104028327 325.6188781063719
308.9700248054353 252.91445285275785 137.34259667441242
138.13303098504838 240.4223699536562 248.47684533786293
245.6581485830226 136.66690150484357 340.9210292906327
233.02960990390383 140.84365300429025 336.38251567688013
131.11032360874248 243.20392147656528 229.95295687731434
299.85107724939826 248.18422945492043 135.99101432603658
129.09377581137295 269.3046734913266 328.74648552561615
348.32327722200057 217.22559482305593 155.989687126974
118.13717941203448 240.23134575937758 224.4506920603969
184.8233090023333 118.04912426255967 277.98583805488397
342.6711137385355 163.50128633476794 317.1012310195368
398.5418496131048 271.5973302733741 247.648031099889
330.07670653307946 162.726317547877 158.0954450607926
222.14774914547746 136.89047204772436 343.4615852923041
141.41800086636093 239.24000854057883 354.75380037716667
119.56935695681877 250.38817431626123 149.67169735846804
160.20309301866433 142.6207018963204 178.61803684159827
263.4238212618798 218.856411465491 105.04942398695354
243.50221083892174 241.3787502812532 377.02237061832915
228.74260678181054 135.9803958797946 165.95958254041855
377.8638464003526 184.5468886449068 219.66790743314272
230.82289960392674 107.13788222350955 272.0405669482808
237.72184961923043 162.1174570079874 165.3166906644196
232.3038552880145 156.46850289585998 173.36483406786473
226.93361996646763 114.98565695321211 271.589244334891
374.2552180027965 189.70797377338397 220.04878740056768
226.27019426628812 144.1937088214732 170.90622161346872
241.18042581028294 246.53316187582874 369.77884652412575
262.05052113592944 227.2140880772971 110.20015415258717
164.59361782811723 148.66125612173653 182.18471623444668
124.34808720423354 252.88897226429094 154.42299283992938
145.48818019387213 244.48033953847164 348.0950999417889
223.28987727161254 142.44396096609057 337.2229393190959
327.7887427914406 168.9462658800153 162.75350392629014
393.8407211200776 269.7365436299015 248.20161913649122
339.23150833437904 167.6139738813894 312.1824121148517
191.3660115283029 122.45015580626995 276.13381024152727
125.77617397850123 243.8347907346687 221.40032334365438
341.94308930441923 214.5882821333753 160.8616767738302
138.88948981852968 265.54170924240486 332.0959216328261
284.5744535071074 244.21583259495492 133.06229183645445
237.19154143394258 247.45427449668549 347.99333282890564
264.11948616151585 242.5286493552344 127.3327893036443
150.13045703315808 261.36349459070146 334.3724729569737
335.5371283883769 210.62875051068147 166.9827978244605
131.8931480551891 246.57231008513548 217.6523549439064
198.02715471455812 127.4838995010297 274.0441069140257
335.7684810979144 172.13804096755422 307.38043776538274
388.21835476919404 267.6172409855585 248.62037114940762
325.4416436571179 175.58923192190974 167.63597193767743
223.79185076470165 147.3436879991291 331.11782453090103
150.16443274218074 249.60020794701896 342.2385823620767
130.19753527635064 255.03932254806838 159.63427204360812
169.33335635093889 154.3287177976484 185.63400730748214
258.97883309491004 234.06950577641692 115.8512982932418
239.13628652968387 251.4330299845114 361.565114403726
224.44782610811046 150.93398178785185 176.37938403986587
369.839118143642 194.8364706297916 221.81685628098305
223.16015788900768 124.05857614253122 271.1188210479309
217.99862672617283 134.99744056562955 270.8040774961993
364.6358675117915 200.51991991386632 223.94729200859442
221.88834715193377 156.60256656688279 181.8907915635753
236.68729131244245 256.01784148701694 353.0196958210079
255.34963472570976 239.9653738789682 122.57967745557376
174.37277338567836 160.23485755376365 188.87465332142415
136.53487518334447 257.31876812791154 165.30208937227408
155.81922683229195 253.79080810108692 337.5672925468331
224.3778282436471 152.10594743333678 325.1644135883873
323.5162636603058 182.31083876434715 172.89353312747883
381.7346834477378 265.30106276327405 248.89021367206817
332.1531898817398 176.8397709724813 302.4242969995402
204.17361379210124 133.39842758559408 272.3995984819432
138.6045618747277 249.53728671512013 213.3947056288343
328.6809060401204 206.3647362590051 173.54797391440763
239.85078460756995 269.8608593021209 335.2116804516311
321.32263883975855 201.01292656151844 180.65593644007006
145.86451197680307 252.79781237380857 208.51523401321433
208.8068500140437 140.03533566352206 271.5124632039919
328.23251258484345 181.69144851228944 297.6910918578323
374.4926380214634 262.8994141156407 249.00699167048717
320.3654485403349 188.55236181022457 177.81169457415362
225.36191352862184 156.78263002240922 319.2833666454103
162.0535774651734 256.60620838369965 333.35467609354936
143.2401132194535 259.7161842605915 171.26965399944706
179.72267866154817 166.17281698769713 192.29751503970436
250.50298270898338 244.83996497644463 127.70635308560269
233.78543250204675 260.7686248435472 346.2837286265277
219.12595744265786 162.62465766852637 187.81657381104634
357.59232336835436 206.43339575753473 227.24131378520784
348.3176819190234 215.87245185908435 230.33666195749123
216.21395798170312 168.99266846174106 194.07285771021324
231.25452706658925 265.8751544325913 338.92915345457334
245.08737429741427 250.00954223922224 133.03730135087957
185.31167879365958 171.83453486724002 195.79608199656437
150.4110959401627 262.2689762239376 176.79959530383496
168.62071285364152 259.6072255773059 329.00189009110045
226.45617255643543 161.67168790441588 313.13556113152487
315.9457317441479 192.46591237867162 182.87901881480838
366.62755264939864 260.74755288050216 248.94336546656737
324.3043802384184 186.63731756954508 292.9378056632623
212.73750961988395 146.99154774290724 270.7992352436352
153.44517433053966 256.80568946953537 201.93134334557377
162.44970467158214 263.2688357352894 194.7155167393362
216.52169535028963 154.73513799925055 270.45438931853806
320.24390675638693 191.72528603983744 288.0554835015891
358.3999492802737 260.19071277334234 248.5169882245789
311.64788883937155 196.19191935181928 187.8905077770128
228.14415154776404 166.75712707054402 307.02302506696105
175.45872760137195 262.9317449555684 325.193547391584
157.91446891707125 264.50423413789383 181.72753983784978
191.14732673396773 177.64516963796444 199.08325830221202
239.2498433151244 255.47147771710985 138.6245031694117
227.12033103679957 269.2721514651163 333.37029052979057
213.19383474937717 175.68418140532341 200.61997417780356
341.5998795704152 231.4928162344402 237.208500524432
339.6770448614914 250.3217053669474 244.06481653923228
207.92483890424964 183.80953423440792 205.282107951932
221.9958876292509 272.8638900097852 326.5617608427612
233.19491318703396 261.48659522636893 144.81167706335722
196.0601858871584 183.8158092075966 202.73649264152243
165.38136902580024 267.0703986428456 185.8546305317086
182.54086547303424 266.40651648203385 321.21149157683027
229.92408447008836 171.9922520355705 300.7044649823499
307.14447644338094 199.68674432653032 193.09919598255755
349.73296022921437 259.70540981533975 248.0265978016168
315.9432678481736 196.89007861341088 283.41669073499645
220.46997230294423 162.79341568452722 269.78228396592016
224.87637140516642 170.6586987516884 269.08183794904573
311.51565691751244 202.19379946229844 278.66885801499467
340.9241070957369 259.5085089392711 247.5758243473224
303.282746143391 203.38800064396779 198.70322566341682
231.63233524493353 177.13310653466905 294.1061624755237
189.71964443105358 269.81027964639145 316.60204415302246
172.85563505607627 269.666373007115 189.7938194246832
200.11751612630377 190.00376089788887 206.39401910197003
226.79006074205847 268.7849166987592 153.3737478222123
215.7495214832026 275.64688746923593 318.76978329960025
208.81178019443826 275.8374455767338 310.59617011491304
220.2276445953377 276.7907389416774 168.48455048871676
204.11258884431126 196.02328438625423 209.5151269162557
180.57965184579777 272.3590249083695 193.76488117913252
196.21654055074873 273.1450091721614 310.86076330452875
233.37089447412623 182.45251881506047 287.6501265060254
299.46689106567686 206.8549822957645 204.54180298956715
333.3337706993647 260.781305071408 247.69394964781947
306.7479310854637 207.71176575398442 273.9900324695252
228.64541027969253 179.46556870519325 268.81658797009896
233.0258613779802 189.73878668005676 270.37881213845776
301.576386770258 213.38136917213754 269.31684192928816
325.9110568275637 261.9218224537851 247.8604949109636
295.56805243868473 210.89932226216501 210.32657467790793
235.04679497632276 188.3945045632835 282.2618126718765
200.55919052867878 275.9168269890163 304.8590062155375
188.51289521355898 275.10987948804865 197.79565831084903
208.24536600498632 202.24757335136667 212.74669835009158
214.2825982092072 282.09766261156005 183.50627841658857
209.56014218388628 282.6215585297528 197.906230949127
212.4779669522941 208.2704062724452 216.1318821588053
196.6418253947376 277.59067266524977 202.18826153763638
204.32537949757827 278.6530043199407 298.5416828843721
236.79449333439538 194.88444285826213 277.79814598209344
291.38698064873887 214.93561962237968 216.26811552629468
317.9874131037897 263.10851185672425 247.97619251123749
296.1696636550794 218.9507210604422 264.3570660826673
290.3327547229021 224.48536861262815 259.09601245508463
309.67934447258364 264.33638333743136 247.88760542551665
287.17263666171715 218.9490658259812 222.2224050727766
238.41534448626388 201.30733244795488 273.4167103661984
208.2898248486072 281.32587416524154 291.8316171335888
204.58742531863223 280.179720179665 206.8561385382141
216.868171506438 214.30487073442643 219.80050464927265
221.40498675044051 219.9974285436064 223.5606255341892
211.843891174809 282.0307962243263 212.68171860874057
212.493103329571 284.14834923052695 284.8108008023238
239.8929382384704 207.7624250782544 268.8028298023512
282.67209634886643 223.4187988520814 227.85654551963825
301.4315090251392 265.88404241112494 246.44138064645455
284.15809830649687 230.14266481109672 253.5749544376509
277.3880277897872 234.04338446871105 244.93908848301396
293.2233297756448 267.7845983333924 245.1199350623908
277.92309679866025 228.45687386907468 232.46328386222746
240.97781546004697 214.12133838361947 264.02768425221785
217.21870119617932 286.97322740099423 277.5077102386451
219.18592220338664 283.54434856237754 219.09146405927413
226.2023947774947 225.54774313948778 227.52753542032173
231.02812985159053 231.04750535348498 231.80178321817823
226.74445115128623 284.91645332610204 225.7603055811328
222.29686734565755 288.7211369604773 269.87259039435696
242.29039324269309 220.17742709512848 259.0815821288739
272.65341709919085 233.40425257199524 236.10219558708303
284.94496622431353 269.14240986738554 244.3065136609966
276.3907859385281 270.03579139057325 244.26564524892302
267.10334897300135 238.1907571530722 239.05874999124916
243.8312056714372 226.47159424409423 254.58579713575907
228.0503994828288 290.2951272773925 262.9918934517659
234.40721440762877 286.2861044448329 233.56051118665346
236.27071828912815 235.94807242650663 236.74222930488384
242.1932231728428 240.10051392690858 242.1358380354206
241.8654204963221 288.4268918009881 242.19961369340598
234.3107113122353 291.73911961189725 256.56339216007655
245.42402809753804 233.00602630654217 251.18864981395356
261.02736130895767 242.5832142972552 242.24631381415358
268.124728925894 271.17205687630627 245.1196469094599
259.2721597185719 274.477840775456 247.04106248653346
254.9524688489525 246.30683993112413 246.2703331526619
247.9748234391908 238.95006814541327 250.1617169671663
240.93357753905846 293.1494136827322 254.12273305048436
247.04836932101435 294.52824268344517 250.96357162500013
249.12753786981864 244.52255438319938 250.00936746357434
250 250 250
250 300 250
250 350 250
250 400 250
250 450 250
250 500 250
