296.6193712524679 0.7298750124387503 338.42998174108067
211.85643892645845 31.963639359906534 275.6544028796546
219.90271438999412 246.02123024683158 167.0896972709314
201.76317832084982 257.74266460855085 164.3909210777027
127.56203763659333 236.04160292381636 244.18899092583396
276.3923388393198 245.46490978393996 488.7528033905222
421.54858824974997 292.5954713750495 202.70253512670075
133.7256689933269 195.07742841082626 113.28094331007492
290.35075457672167 158.98730096042962 369.9901304124135
133.24052120262724 147.95854740441737 399.27079259826735
182.29360370034686 148.58460661225428 466.9465837631729
425.84664355085056 290.07624682922665 68.3727786558835
43.26194146222738 85.9362290757736 64.52037848372305
84.54521197759833 169.70031793206505 66.83849391156139
457.40378383395904 195.42289484139195 109.43845173520782
446.1961672128881 228.92073078829299 395.8386482801102
83.12977310290037 27.790313630046903 185.40441627235245
236.2703799299939 -41.43342685420009 460.09893879721096
115.4775248017649 -10.5899002983459 418.23318426307947
193.70876387680678 24.419189745768975 271.0926872447214
318.35313371710834 13.89289921234042 361.25225967084447
123.10481042458092 43.7868841073088 55.10351438108266
81.28193051948637 76.14314147986777 422.2481134152996
174.72323650134146 18.451986561457563 272.54682328383774
62.835796287719724 54.6717445461671 389.4747544643777
447.90264958829624 112.52106321546279 358.30163010964384
443.91748987356846 32.882179813231545 463.16457592893045
328.67083844475474 -21.277833525987337 54.86668630443421
124.53335782140623 25.457431636953018 326.9837994654557
431.88574152223526 53.390282946098345 98.5652824890051
424.17257351051245 -23.24542352240388 294.5855512824458
368.7054245055229 34.62975580055677 414.67175207368444
397.3756725649625 6.158451939930778 348.06527991146675
219.90271438999412 246.02123024683158 167.0896972709314
201.76317832084982 257.74266460855085 164.3909210777027
127.56203763659333 236.04160292381636 244.18899092583396
276.3923388393198 245.46490978393996 488.7528033905222
421.54858824974997 292.5954713750495 202.70253512670075
133.7256689933269 195.07742841082626 113.28094331007492
290.35075457672167 158.98730096042962 369.9901304124135
133.24052120262724 147.95854740441737 399.27079259826735
182.29360370034686 148.58460661225428 466.9465837631729
425.84664355085056 290.07624682922665 68.3727786558835
43.26194146222738 85.9362290757736 64.52037848372305
84.54521197759833 169.70031793206505 66.83849391156139
457.40378383395904 195.42289484139195 109.43845173520782
446.1961672128881 228.92073078829299 395.8386482801102
83.12977310290037 27.790313630046903 185.40441627235245
236.2703799299939 -41.43342685420009 460.09893879721096
408.55595204997434 37.534583899932926 357.2945676595009
174.18115817052956 46.11480057702921 342.2168290007931
142.7013745832292 97.59490960914164 353.1878724268583
115.4775248017649 -10.5899002983459 418.23318426307947
362.3328708688083 41.18450683913936 407.19976335015633
394.3332893584551 -16.710162688223328 288.7820539731634
427.0519217978278 57.25821288860176 115.84884927935596
127.2568226770474 30.25463568373992 326.2020731892095
201.9504948390908 -2.648674424739381 372.42462500681984
344.2083159100459 1.6595200110897927 67.27384176504148
448.1210216192775 69.1153206223338 454.5134731470653
437.3060407220331 103.47889093979614 367.2907859080861
71.80613873724238 81.50278796316313 381.9203299373285
184.30227679908305 20.833058824132866 267.7889154950488
88.83998973429122 87.20856892934569 420.57466292279514
146.87007551716385 62.0333182070994 50.75840350474291
59.9939200472008 127.17581401187022 377.1803763639489
334.8528343111766 32.60944351794804 377.612106883723
219.90271438999412 246.02123024683158 167.0896972709314
201.76317832084982 257.74266460855085 164.3909210777027
127.56203763659333 236.04160292381636 244.18899092583396
276.3923388393198 245.46490978393996 488.7528033905222
421.54858824974997 292.5954713750495 202.70253512670075
133.7256689933269 195.07742841082626 113.28094331007492
290.35075457672167 158.98730096042962 369.9901304124135
133.24052120262724 147.95854740441737 399.27079259826735
182.29360370034686 148.58460661225428 466.9465837631729
425.84664355085056 290.07624682922665 68.3727786558835
43.26194146222738 85.9362290757736 64.52037848372305
84.54521197759833 169.70031793206505 66.83849391156139
457.40378383395904 195.42289484139195 109.43845173520782
446.1961672128881 228.92073078829299 395.8386482801102
83.12977310290037 27.790313630046903 185.40441627235245
344.66833013175216 50.026473580520545 386.64852120770536
73.90680390699856 114.44355839083818 369.74383775244826
176.42780574941963 91.86826752645075 47.556580987094705
161.35556407980724 78.99267329868135 49.91031638883309
97.47780308417644 100.24127724504292 418.159925520489
184.37197366823486 20.120790731663728 263.0912821151883
236.2703799299939 -41.43342685420009 460.09893879721096
77.56514218575941 98.86494802843113 374.19992380892546
427.4598057935248 101.75508211172144 369.50657508405106
445.00108626464225 108.42912004219465 439.7897784841222
349.9903955754102 26.064238802989014 81.31777851040391
216.42101902253654 14.740603250442897 370.53230363973205
130.92060659280835 37.23677706696425 324.74141727127363
422.0681149710538 62.65706480862208 132.78702934721488
369.43880731986957 -1.501370236546082 283.543163906918
63.34487233390865 149.31025787716473 59.96210515111028
356.0343334299192 48.39769595497455 399.47100164934295
68.61660348031099 23.8295418100146 175.79131124378898
141.16112855029138 21.815797993646708 412.147251237149
140.4792264426316 74.69596801004994 338.69217208219646
195.68186651297034 39.365081499016775 353.67061649058627
412.1911050626025 66.38841237832543 360.4650558843296
219.90271438999412 246.02123024683158 167.0896972709314
201.76317832084982 257.74266460855085 164.3909210777027
127.56203763659333 236.04160292381636 244.18899092583396
276.3923388393198 245.46490978393996 488.7528033905222
421.54858824974997 292.5954713750495 202.70253512670075
133.7256689933269 195.07742841082626 113.28094331007492
290.35075457672167 158.98730096042962 369.9901304124135
133.24052120262724 147.95854740441737 399.27079259826735
182.29360370034686 148.58460661225428 466.9465837631729
425.84664355085056 290.07624682922665 68.3727786558835
43.26194146222738 85.9362290757736 64.52037848372305
411.14624533123725 87.27149296167829 359.81917689546145
214.35056586760328 40.90669390489155 360.3042849655338
141.00511398741224 61.40585536016667 323.8519342261637
84.54521197759833 169.70031793206505 66.83849391156139
457.40378383395904 195.42289484139195 109.43845173520782
446.1961672128881 228.92073078829299 395.8386482801102
161.32215556219424 51.29215348968256 398.2561854787226
81.19289445741668 28.012556344022926 184.28395593108786
350.6110372511544 56.03332624728965 392.5994359733304
73.96393720766274 163.36762290701625 62.36109395822043
354.3376064280288 14.671672864252363 280.08243723768743
417.0916029312921 69.84426554079322 148.4885589421017
135.3192580029502 45.44120204974129 322.29419299620497
221.62704739580633 28.437346239430504 367.9090205947971
348.10781636458023 44.70090031693242 92.53637995711665
436.8053920962592 139.1628331284806 424.27945114129466
447.3083949552329 141.81850219975988 60.25126386685041
419.58964363647607 98.57602918244694 366.4023780392485
80.14160400346591 106.79164176456904 367.39788793265933
227.3659174740401 0.6600093823539126 460.31366404092114
184.33226444974605 19.492213803590673 254.77892534841016
106.20718123729674 113.21996319575103 415.0822465303002
167.2816031175391 91.24501084564606 51.202278259549004
402.06593971938594 180.92135576510435 220.09086732313204
448.9143551792039 48.51855295473813 201.06579789746687
431.28351621438276 193.89700405037235 179.7435952086439
219.90271438999412 246.02123024683158 167.0896972709314
201.76317832084982 257.74266460855085 164.3909210777027
127.56203763659333 236.04160292381636 244.18899092583396
276.3923388393198 245.46490978393996 488.7528033905222
421.54858824974997 292.5954713750495 202.70253512670075
133.7256689933269 195.07742841082626 113.28094331007492
290.35075457672167 158.98730096042962 369.9901304124135
133.24052120262724 147.95854740441737 399.27079259826735
182.29360370034686 148.58460661225428 466.9465837631729
151.5658677936326 54.03606667021815 317.9624581501174
416.8657222955431 184.01663990834308 190.25028976375933
70.42028383410864 126.81085727590657 320.245375603771
424.226515932993 59.98401047911331 204.5348080697191
425.84664355085056 290.07624682922665 68.3727786558835
409.48521006617 177.75951301342008 205.82839975925583
165.34023072019224 97.4974631388267 53.94517577756865
114.25990959066411 124.45248882422777 411.3076578246075
184.3210550797144 19.419889899741385 243.71984603519857
43.26194146222738 85.9362290757736 64.52037848372305
224.63534703008636 43.4294959195271 452.690914345903
84.2232840211403 110.98889453316978 361.3112212471068
412.6630024080585 97.48088785621908 361.03319922852234
442.5011267811544 169.54671757349612 81.11267497732088
427.0591064408763 160.22446299374002 410.7807082997946
341.22075917761697 55.72749293448598 99.626779424929
223.52337308521885 39.4337054651162 364.518310831315
139.56229878017052 52.845659076070376 317.957290048098
412.3118350606867 79.5022871037977 161.66598721995817
348.7672150495351 28.460870833196346 278.48744163364995
82.4999682495884 167.74327318835012 66.14765964024373
348.1076000576394 63.64654637580959 388.9821854356205
85.48570025398469 30.54743011903639 187.42239616745732
174.61412459956352 74.21406120438583 381.22581138496486
434.2504139801244 205.86872019316905 397.5303134945494
457.40378383395904 195.42289484139195 109.43845173520782
169.58147161345545 3.9240676072247727 203.21376129065527
219.90271438999412 246.02123024683158 167.0896972709314
201.76317832084982 257.74266460855085 164.3909210777027
127.56203763659333 236.04160292381636 244.18899092583396
276.3923388393198 245.46490978393996 488.7528033905222
421.54858824974997 292.5954713750495 202.70253512670075
133.7256689933269 195.07742841082626 113.28094331007492
290.35075457672167 158.98730096042962 369.9901304124135
133.24052120262724 147.95854740441737 399.27079259826735
181.44207841559248 14.883107019065871 214.49666422989003
439.86858612208175 199.5896480490931 105.96647675565592
418.5088589938378 190.69836766847803 394.3772542473981
182.29360370034686 148.58460661225428 466.9465837631729
183.18502450170044 92.75189142724055 371.84340243010666
91.33974111891857 34.509825881842445 191.45019257096678
345.5700934491585 72.0649876807085 385.21493398665496
87.22966326503581 170.60004507462662 69.75300651288937
343.1793296541525 42.52277937518288 275.7887273216341
406.8151393300253 88.81685949486126 173.7012698495718
142.92304507552046 57.199527301527546 312.95467395989164
225.63211935656875 47.0271097080242 361.9917796254388
333.52777349621255 66.94968760977387 106.21965347405012
420.0605982515085 172.93170320150395 402.0415759936211
437.1974114374911 189.42532845950132 95.79854970671451
184.02155607734906 17.681085588007686 96.16611608332747
406.94168233627664 99.03312369032382 356.56266046832576
88.89376975561228 115.63363422650262 354.4668142943011
227.84044652563043 80.81466350850582 439.0867825502783
59.5301671943911 81.13852107611767 101.05230511990567
184.6241254215272 20.457303890078148 231.9323049180221
122.7092034420568 135.57790637990772 406.6044425011895
163.43016852474327 106.72928905418733 58.662150669307024
409.3244893032913 178.79685436832878 196.55698294811398
424.89559678037386 287.7011031172364 71.71146894411487
405.5317874316419 63.66463217045515 209.8690138490234
81.20583949882734 130.05195203318073 330.8176236608547
219.90271438999412 246.02123024683158 167.0896972709314
201.76317832084982 257.74266460855085 164.3909210777027
127.56203763659333 236.04160292381636 244.18899092583396
276.3923388393198 245.46490978393996 488.7528033905222
421.54858824974997 292.5954713750495 202.70253512670075
133.7256689933269 195.07742841082626 113.28094331007492
290.35075457672167 158.98730096042962 369.9901304124135
91.1616672326021 129.23041194304147 338.57040028122486
157.01301614892247 132.77377541291824 68.57196626417014
385.6158861462495 67.71890574408988 221.26828554043976
413.1538472937116 175.77083887701232 133.25659074773478
422.7466065187216 282.54822917657043 79.00114220239661
405.93098453765174 177.1804673764229 191.89125156739718
162.72091369628853 117.11374942429418 64.70316375547009
132.04007197674179 146.0686566623115 399.59692626180157
185.60860390064505 23.18835481970774 222.05897767859906
75.99219690671552 85.77107327735678 134.26269106528093
232.63210001427984 108.3534959746265 426.2123980227771
92.9055388366105 120.6088249589208 347.4964881644727
400.5970204659007 101.19359242150543 351.5067927408874
194.89288302394013 35.252560628443206 93.17472164930476
432.26698551132927 201.388811687373 104.38430893177289
412.49735941200385 182.12452554309615 394.3337687749975
325.4613348065164 77.58087090972262 111.35560977996636
228.20440869135197 55.34069485360598 359.2816924352793
145.53055563849324 61.240590336039666 307.67034700022987
401.0124398069928 97.82664474599501 182.29874016083528
339.3942017806422 55.29903065973521 272.07528486086176
93.06486025332028 174.0321862687473 74.06022900353838
167.31630333896072 37.76004543899896 132.59187696632188
342.97813923760793 81.24820984403307 381.18797248478376
98.97464938808707 40.22069903635761 196.43278533289924
187.2069711586073 105.35810942935012 369.1035081222341
182.29360370034686 148.58460661225428 466.9465837631729
345.2633431882675 91.13548764850678 283.71571989323326
387.7358960296522 94.87291766545535 206.6730220529435
315.6292218609859 117.46315036324562 96.70117255543921
219.90271438999412 246.02123024683158 167.0896972709314
201.76317832084982 257.74266460855085 164.3909210777027
127.56203763659333 236.04160292381636 244.18899092583396
276.3923388393198 245.46490978393996 488.7528033905222
421.54858824974997 292.5954713750495 202.70253512670075
133.7256689933269 195.07742841082626 113.28094331007492
438.5548048453966 198.43411160965243 340.86195384584437
311.5841155805403 103.3793220092732 110.51982973483426
384.88500226390227 108.50336230072533 191.73201637203317
341.61831602714665 80.82399212786537 267.1375511833797
193.00463112289208 127.7990757379131 360.1291168991331
449.3633016309288 222.49474200599397 150.78306993493374
163.0957044011224 169.99562671033942 449.44352941595264
290.35075457672167 158.98730096042962 369.9901304124135
192.453281800224 114.9287074526916 365.37490701705633
108.5728826857418 48.17113687121015 202.87521717792688
340.3166171736411 91.3165766838295 376.55073193504955
164.06038943645262 53.9728433360139 143.9813430801975
226.81742612032605 69.93714283053853 149.77497617215522
99.9282492116745 177.90775311754658 78.95214333017239
404.5444002173202 250.72629118285604 442.31967479675683
339.5344695920292 64.70008416120531 267.292013843736
395.35827851595695 105.89094654812634 184.16940523387578
148.25881571160085 66.08622326642048 301.5776925174066
82.09096199290096 276.8926253019234 109.81795897257201
230.93915525536735 64.0533875017683 356.45351028666016
317.59959008675514 86.38284950978428 113.5122908688258
404.9725498493075 185.0369858496425 389.0524751995822
426.02755524607454 209.99074917566276 109.38551312533701
197.77497891133044 50.81550862811517 95.85236648214405
393.82033980625 103.95142167119451 345.9456757056054
436.0689022326152 181.9541906932412 329.9935927362434
98.12554718960685 124.75904833261846 344.1157681346201
237.3095910683655 126.25625051739839 416.00877540785524
89.11282714714915 94.212365858637 158.85167652774786
187.779966002101 28.311904298639284 217.81716372920152
135.51840821575072 149.36590847773525 396.33126057175747
163.8412254110098 125.87704955761377 71.14128668687673
400.69096912987004 174.54944002504212 186.46914807572963
419.73285441401276 275.09254960443496 89.78273465252181
394.20881774143083 175.12688133138963 154.0032115201059
273.9772137185757 165.02374149230778 408.58207008815685
364.0141607917784 71.36978996724363 240.18570341485255
219.90271438999412 246.02123024683158 167.0896972709314
201.76317832084982 257.74266460855085 164.3909210777027
127.56203763659333 236.04160292381636 244.18899092583396
276.3923388393198 245.46490978393996 488.7528033905222
421.54858824974997 292.5954713750495 202.70253512670075
133.7256689933269 195.07742841082626 113.28094331007492
345.7855846112247 77.50955552653662 250.0241712208313
388.07840553621094 109.44524011575281 326.7170566006962
256.49451086248274 160.44764821562046 402.73554068661065
383.8857043989956 171.46526191538217 170.68089168017644
416.3554821126717 266.5326139522116 102.40357371849727
394.0630965962493 171.49015528681804 181.60532077518042
167.35814855481885 129.50705263627364 76.77224393482568
446.42927521845775 147.09442584620743 290.05569925476476
140.68132944252574 153.97140723152515 391.85445166761957
187.74316032572222 38.76061487118308 214.0325686462654
98.22685969141847 104.00066305075332 174.37794973176383
243.5272784377801 145.25522750786078 405.180327792526
104.027660222785 128.2093241719402 341.60757894796376
435.3723720338746 192.5526805318571 332.6075447055721
387.0059796885772 107.3930526189116 339.96698938273113
201.0050741457643 68.58392976287757 99.51537849879193
420.64176670831694 222.2355561030967 117.81550009558592
396.2761430876393 188.11357660143236 383.25527655081453
310.6092334459461 95.45381828280863 117.04871222961394
233.08004830088944 71.92180826655185 353.8855917846789
87.77223119155735 261.4244497250877 102.34801607718487
150.05977701300372 72.000775861237 296.02746275391536
122.09356639819957 233.2557565362485 398.206197835663
390.7068656861579 112.92598706135585 185.05151892286372
338.85443137306294 73.75721693265595 261.80061307101886
394.1749214926306 252.08267812159073 421.2975445785419
107.60332608994545 182.08602096587737 84.33816163080347
232.9964619828167 77.0884046943223 163.2144946033743
168.71727734705448 67.11006012181701 150.08607946637645
337.5469720644016 103.07954514259096 370.0560044640923
121.11822018950028 59.966939691874245 212.69517659589323
198.05484681906594 117.31391104725614 361.53594023367117
304.646597104224 145.94510107937054 368.2504826085532
402.946742606366 269.5065119655253 378.6954635774361
153.66866624454752 190.94128167375044 429.8635283138806
380.913841005165 175.62898043917494 348.2812131015826
436.57284179946095 228.962291214305 145.22868883410337
219.90271438999412 246.02123024683158 167.0896972709314
201.76317832084982 257.74266460855085 164.3909210777027
127.56203763659333 236.04160292381636 244.18899092583396
276.3923388393198 245.46490978393996 488.7528033905222
421.54858824974997 292.5954713750495 202.70253512670075
133.7256689933269 195.07742841082626 113.28094331007492
419.90353089564434 236.2943916402215 135.29258450960458
378.0230156320897 189.50784819582526 363.9544018994106
151.75315313902703 206.4531997539296 414.03205957677324
386.8785989990924 264.57825520619133 391.3252306915992
322.03077615400787 136.33222912776964 357.6394263777643
204.43699282946005 116.49469332382314 358.70539827372386
140.640340068613 80.866254306418 231.53506617153965
334.43273559212537 120.08483703968312 357.1103660422787
173.44774684368912 82.33424521083924 156.2519646282966
242.14077329247297 85.89582341635632 167.24846754359143
115.83645792881502 186.43743347791718 90.37872006331165
387.7240925960687 257.39867423740054 408.5799720661495
99.9552537283755 268.11063678854566 324.9933573178473
337.2984823682785 78.9255018437364 255.92277497091172
124.10065431427086 242.21714385778972 53.999201119624445
387.4396257152175 120.02622461649983 184.9358544822929
136.3847671559934 219.80302504474994 405.43104224179075
152.19514599538158 78.63108905883976 290.17913714589406
97.9945684307016 252.8717251025238 100.49547820108562
233.91573471036838 80.12694452562187 351.3263332400928
305.37817296041004 98.82274196216503 122.20252670569297
386.9156351265751 191.56699455404052 377.42552073155866
415.00442079111906 231.24799214096987 123.24632954537286
203.47939498112825 87.04960913708157 104.60145601089523
381.52141023651234 112.18872460130004 333.7262008560856
432.9542492596 195.45243170536313 329.0761291537343
110.40256952325775 132.13609200167997 338.8668204839954
247.18764894747602 156.47134734792544 400.08662211171315
103.08917367511668 113.7888864961581 180.85309652652793
187.0119305629178 52.465723980505416 209.6813226190071
147.10887015608603 159.71859005231 386.73534620750604
415.9314581070728 142.35102858477418 278.57994601268194
171.7410033007738 134.1960181261528 83.8962923958521
386.9992467122891 169.1033174631669 180.34697804630025
274.71897266410525 72.503172289032 233.04242745457537
412.8969588746239 257.85752835957607 115.35683142250346
219.90271438999412 246.02123024683158 167.0896972709314
201.76317832084982 257.74266460855085 164.3909210777027
127.56203763659333 236.04160292381636 244.18899092583396
276.3923388393198 245.46490978393996 488.7528033905222
421.54858824974997 292.5954713750495 202.70253512670075
133.7256689933269 195.07742841082626 113.28094331007492
113.9709190064201 266.590734089615 362.1480657809595
409.56886438679663 249.93410041566366 127.31126742623587
430.56679556366214 214.88007933187865 315.2856047329166
287.4969238245143 87.66802805963268 245.47954731883462
381.4749229589587 166.4010871634752 181.4064426081126
175.80835784936866 139.86352220100554 91.65208008724127
390.81166682655083 138.28622354411797 275.5075463131124
153.15617089244972 166.4613358265051 381.8705893743126
185.85965818018937 68.36466639874324 206.19868155546067
108.21128250690214 123.68159919852698 187.5981795461238
245.98437336432272 162.86391691515286 395.3109725267094
115.88135244017549 136.91440719059574 336.0904066163699
428.7747519466195 200.65793427866058 322.85363408191074
375.72985295994675 116.93597957491517 329.07519966030213
204.48627438065222 105.79317411991406 111.72498204687788
412.76196703978695 238.47827164998753 128.30290932812147
377.7170371321874 195.5682704315633 372.610801125136
299.35578669200703 102.87896048740784 128.8072311777536
234.95526301494675 88.64172184122897 348.3772617823808
108.79910286972594 245.92943401152596 99.82258362752611
154.71710093913165 86.84623762497606 284.8386394276903
148.5762836441216 214.1063572893203 406.7031728726933
383.74824879038135 127.89758634607047 185.04288191127114
139.37885182977044 224.56853024407602 56.504965273910145
333.8028743942455 83.76188093325119 252.05389465618236
107.62472443530484 267.68784292064265 343.3671246963048
379.9373062233416 261.52263492385737 398.6224412492423
319.04301504370335 165.71581916295307 391.391122152073
124.45460109582598 190.819148121211 98.22621075367096
252.67606306050345 96.81639844834808 170.80477667945016
178.0427641131674 97.61637010875218 161.21504108766322
331.96136927991535 129.8050795025205 350.98490156969547
152.96384329579183 94.83812945184674 250.8114196062257
214.7636615087937 114.49381576172499 353.7856475548563
225.08112490573748 200.6829308760206 392.63610801012527
219.90271438999412 246.02123024683158 167.0896972709314
201.76317832084982 257.74266460855085 164.3909210777027
127.56203763659333 236.04160292381636 244.18899092583396
276.3923388393198 245.46490978393996 488.7528033905222
113.16850354351962 149.3810871418055 198.78820421741582
237.05202375870618 185.67453677003215 385.4441665587536
209.410831123654 138.58097352242768 125.37815506181387
232.84484899796112 107.94843494195636 344.50498862300185
158.22275356550017 101.83792390762784 268.87055605027257
421.54858824974997 292.5954713750495 202.70253512670075
334.25978713120634 134.50894143044368 343.4581293583244
182.27909460398408 111.58699017686004 163.90238947155174
262.7693251287723 107.97589769801105 171.82376421217836
133.7256689933269 195.07742841082626 113.28094331007492
313.3909068364853 180.5591924002761 384.46182341962384
371.6960329118063 263.16565053963836 394.6353442275107
116.41555575918612 269.7729028059602 352.1256323320821
329.1374718171331 88.93858013724513 247.35308786163557
154.50812438213785 216.91691386828748 59.20532536924422
379.5265624764493 135.93883211088587 185.42981003872487
155.36661596357553 215.54347168568614 403.5102881859529
157.7769624744775 95.087779248324 280.72345953792194
117.95170155015525 243.55182552811613 101.38992798583553
237.62919628784644 96.12922097819964 344.8691536320925
293.14932927131485 107.79041724912845 136.280451304287
370.4849948439446 200.36933641245147 371.30298887579403
409.7121934968033 241.48356006402076 132.66700011895017
203.1083345003549 124.67883470686633 121.94259579968893
369.5761334148385 122.12248161911117 323.92904170971616
50.5308209599459 179.14301118094 257.07517895295206
424.327648544187 206.65764580606466 316.1984690866744
121.40386569559611 142.02338779006973 332.449646436213
244.2704198828818 169.88283984021174 389.0875375085782
113.56587079810896 133.2783110398145 194.4517729218015
184.74256956957237 85.93919213215659 205.28342445487098
155.45886423300286 174.25689132233566 378.74913246307267
221.3432481358545 150.21010252057908 194.82566941185323
374.1409290736226 135.4855743099272 277.63278113174783
177.41657109171493 145.91457843375255 98.45303909755634
375.13891933633676 162.31079168080026 182.9862737728862
301.8652201403155 98.44374102642303 249.07323867744736
219.90271438999412 246.02123024683158 167.0896972709314
201.76317832084982 257.74266460855085 164.3909210777027
127.56203763659333 236.04160292381636 244.18899092583396
312.9093949102184 102.96486557741672 245.60786921346644
369.38803124739735 154.93554351299352 185.5554530566035
276.3923388393198 245.46490978393996 488.7528033905222
181.61616910818108 151.58616119600268 105.80319918382104
366.6923901665122 134.11626041273416 283.34999696387115
211.82364196018622 138.23539420893522 197.35470873307125
158.79508265073588 182.97514880536744 375.2044308842294
184.17816370878572 105.08483623764026 209.13128811399886
119.16452446160756 141.5735650141759 201.11524066844544
243.03787478229387 176.20472003962652 381.9365259838656
127.21074107384261 147.49998220010932 328.5435531083867
418.5092682230306 209.05940863078345 311.0461588244391
83.05666749407183 196.92817502964823 257.9155562646074
363.3923291519783 127.58192989876764 318.30972786602393
202.1351656150845 134.3410355269403 128.31782092426855
406.6871834153252 243.961841090006 136.46752203746865
362.1399321961787 205.58985455107396 370.4340251212184
287.9683965757807 113.55481799822229 143.69814199340607
240.77767381665566 102.5213701600716 341.04790037012657
125.53910089084413 245.45804280065076 103.41487371377369
159.69297155248597 103.11124022686255 278.541572439189
163.15333137459285 217.85013524797998 399.03555080688466
374.17661077568454 141.5907863595758 186.06548929434783
165.40067249724586 218.30339365554133 61.30320410359909
324.41830074453156 95.0418291868683 242.78479060693724
123.06772112651105 272.9337358848174 351.1749268193942
361.8451832750992 264.78321592202917 390.0466686685603
421.54858824974997 292.5954713750495 202.70253512670075
139.94392926870412 307.45584604183875 86.4866088238667
310.7795858959059 194.89638443137514 378.6165514371763
146.89068255144787 194.41736704492442 148.5931502286448
327.0477423478961 297.1676220140288 392.39961621511856
270.79882243101315 117.82662833172296 168.58093230237583
189.0781722602262 127.95050289745214 159.7337969364986
338.84405564658874 138.76306879341985 331.4269344009549
219.90271438999412 246.02123024683158 167.0896972709314
201.76317832084982 257.74266460855085 164.3909210777027
127.56203763659333 236.04160292381636 244.18899092583396
402.70365578107766 210.2324118593628 290.8863532323064
347.31203033767446 140.2212973787057 312.890122852767
197.0104633345353 142.58317877374776 146.96061561190402
279.80072429426895 124.99133346965607 159.4199935687742
172.14791127867596 118.1145531649066 279.5940490175024
335.53461241272475 277.1718697958351 382.8530790844845
153.1810828550458 187.3066432382709 180.56939451609728
312.705043769835 207.05903552991867 374.93505328804287
155.00321595270626 291.6451768417389 100.45214113054493
419.77533283129605 289.428814450831 200.77035146398936
351.36790390826235 266.04654125424264 384.82205647859246
133.61945276081792 276.7112795049621 349.7569751642449
321.84994115196235 102.7304570713757 240.2431054066245
177.8707849935725 220.7111233421025 65.75595681961447
368.38326729902474 147.32078139572985 186.9081310571849
171.58356258886442 221.01961054318932 393.50312267880093
161.70911947638666 111.00455304021767 277.32954072575933
133.18340835499788 248.67606468482015 106.20044448780247
243.73056711271815 108.18018720744493 336.7394823655121
286.5093782211416 120.06600396386052 149.25072052692732
353.3504971426058 211.27950824423152 369.1418995346386
402.9801316208236 246.81385654695754 140.99226096099207
200.44754696912685 141.61302571772538 132.66106182292748
358.2486753680494 133.09933049486656 312.07474023552027
106.44701816926994 213.33611645631575 254.92892772158459
411.1948100647015 211.8824584089697 305.1365659140654
133.24053781219405 153.26299419209113 324.4074367106816
243.81961660049072 178.5779253564189 375.0383020867408
125.03180358853832 145.78492136951732 206.79638151372544
181.98358360089168 114.44761200397501 211.69930061656768
163.62686452847552 191.54728284937178 371.32418410660085
276.3923388393198 245.46490978393996 488.7528033905222
199.93216976272032 134.99584186745565 204.13478342835344
361.9819884361979 137.43884669600382 288.3027334096606
187.7245154671561 156.65578102699902 115.76952750673634
219.90271438999412 246.02123024683158 167.0896972709314
201.76317832084982 257.74266460855085 164.3909210777027
159.67970346072676 289.77653773161904 344.5835021562057
352.14761573752025 149.9062360023783 182.48146334319503
199.82175651973438 158.14413820122437 135.29048427218976
354.9352468696945 142.4997570084196 293.42518613282283
127.56203763659333 236.04160292381636 244.18899092583396
187.40454385700693 134.89557751150983 213.49780389689732
256.62083408368466 264.92018455379576 461.0419265958122
168.4315154704881 200.34054291374915 366.0768756496991
179.89513499578013 124.19753715388335 215.15456699817628
131.8013334832642 150.6162021345543 213.0633952575472
244.6632050424018 179.483627977118 365.5647154523534
139.48967237015376 159.20030371328326 320.06083762675667
403.36028803604154 215.3247841409293 299.47859959731284
120.68903231789258 225.98161387980522 250.47534521899968
353.08162153258735 138.7570042833379 305.80949817373084
200.76399964232638 148.15098978937206 138.68100923259368
398.59554264367307 250.02405022063584 146.10964191213804
344.87372310472944 217.4390660161999 367.34652147091526
286.59056903695705 127.0465208774585 152.38610776953513
246.69505327502156 113.88247193273665 331.68088559333364
139.9152845010569 252.48267046260594 110.17345177923035
162.82429827314195 118.939453361767 276.15211964983484
180.0856380871044 224.98508894381132 387.2893233257148
362.61993120791186 151.06619019907077 188.08145180063988
296.37793836293486 199.66655510862208 102.6980188549492
190.3683137999952 227.93463088899404 74.1860700785815
320.9601323214721 109.74714237540371 237.1163353976887
145.9349709808683 279.6631163892665 348.54166139890884
341.7181631453563 266.1261022976218 379.18184575842156
414.24702848552084 283.46219277313185 196.1823728587704
160.6855182300802 277.69399331709366 111.48263059926825
316.9607992388075 218.7935935078278 370.3966128197678
154.00070176496533 177.4213569869964 204.6480218095774
219.90271438999412 246.02123024683158 167.0896972709314
201.76317832084982 257.74266460855085 164.3909210777027
150.6653015499328 166.80944712136164 219.65979550358117
239.44921957430995 193.93914519070282 342.4846168816443
327.2411545145004 227.81518446773347 365.0490577896371
158.70755916420907 268.26741471516914 117.94712111415055
159.4608984116066 139.8206491515089 279.4774439531007
405.1302272124784 276.04745529396223 189.54588944589807
335.9375130092427 263.0503518155049 373.6844437322696
157.36292592288203 280.3607805671836 348.11348712058873
320.49264523806215 117.5204220476586 233.7685127675925
205.66728578115223 236.93939315325412 88.17860711834653
304.6135334800879 204.2811984076545 109.11441914760594
356.48437026493457 154.86587453829742 190.1032329217336
187.5452636489535 229.7549955670682 380.96271133252304
163.35442933296275 126.63086261740783 274.12447380694425
146.03920444765578 256.9245769798232 114.94666740854436
249.7236980944229 119.9176222479593 326.34203931272634
287.86461643675204 133.69566445229034 153.975322987243
339.4101477193023 224.54702643818328 364.49041742941625
393.36934947423396 253.0599992453997 151.59453807249136
203.02228146988992 153.58453118154847 143.3047405538501
348.9888550695197 144.0694249858513 301.2936762010684
126.06149713006242 234.03398057330264 245.53777442582077
396.8324552438723 219.5156123039368 296.73097346048206
146.4188555966586 164.83132115708776 315.3321119507681
245.3742438989064 181.0996751109576 354.2098735909481
139.62427712487926 155.91164435723618 219.3526883478564
178.20717668310522 132.1945967812256 219.51984362814662
172.9559848357686 207.84164251849958 357.34403750817205
236.93380166327532 275.0362868664654 429.7571552532012
384.1336858455005 254.2135436505021 305.0806010366887
308.5594880982625 241.79714504292193 114.55151807992713
235.02743811014943 255.3533860372436 89.13359104611892
219.90271438999412 246.02123024683158 167.0896972709314
201.76317832084982 257.74266460855085 164.3909210777027
223.8327692653654 251.38651238088391 103.42337340151451
307.93745788893 223.64117099676972 121.05465920809999
380.9799929069925 238.60310562364555 294.7502908662927
220.71742657620536 276.1521731151724 401.1087921635979
176.32940699708604 209.82136782842466 337.99766075731736
177.08896034181745 139.87026850012217 224.24322833551284
147.9055161035631 161.20938917306182 225.69991783379166
245.2347282534239 184.01694865722484 341.4796372432224
152.23991152814293 169.83044695205325 309.8276048858454
389.23790352221016 224.51989996510895 293.70311004048614
128.93953007472822 238.2527979641004 243.1602146881688
344.5788588175936 149.348467299265 297.50127295102436
205.800946993562 158.5905794555511 146.97027605202334
387.6665160016257 256.3565446988405 157.42610604932648
335.21112169333526 230.89646892895863 360.90743647759473
289.22297650679656 141.31616371693565 155.8696679004889
252.78763386629228 126.24299053928358 320.83362768461103
152.2402139678227 259.94045493369794 120.1794590336397
164.04550405087122 134.89412458266418 271.81387815690067
191.22364361005407 235.53575092057721 375.67001586197307
350.8056155319687 158.85064058257035 192.5577306883497
306.8060030734849 209.35911566537237 116.05670283251644
215.02801727363686 241.08000773719976 95.76198140134034
318.00125205199413 125.27984065399869 230.5674375117996
164.61229316359177 277.15417907515246 349.1366485716935
330.3776236670384 256.56829013017943 366.9823532637706
393.6813733859575 269.1676436963359 182.42101715148968
219.90271438999412 246.02123024683158 167.0896972709314
201.76317832084982 257.74266460855085 164.3909210777027
380.9740099723393 264.4818121154238 176.231221343322
326.1801028451067 248.5532015499406 357.96787216119196
173.87885867219066 272.84598416603313 350.21253530495875
315.33144768109116 133.7292855936402 227.19432514073964
217.6554439555559 243.34684393495792 103.7575366741285
307.77634145727393 213.82233647280867 123.67281059035487
344.49863749035603 163.2316922521375 195.24990666756688
194.65550699554555 241.7409320484997 369.64024040253344
165.54194637526416 142.62101817509503 268.69342209957455
156.9998562787374 261.3436713979282 125.6293442266781
255.8884421327631 132.9382698587492 315.87233975358544
290.4478182273601 149.8403502991502 158.08855698406435
331.81715131731085 236.36716063882184 356.67526181982646
381.56394761113256 259.69451741065586 163.40181587968632
209.05104638549392 164.404652562403 150.66629740915093
339.9037820593768 154.89978958345299 293.45089151160215
133.0661169126456 243.89289529381418 240.28504192328677
381.0986601448045 229.4832845136518 290.1580001944088
157.67702894079343 174.75759358674645 303.7700606660735
247.35118438726766 182.31114063978364 332.3677260100883
153.46200504968613 163.74940778696325 232.35498647500555
174.5283545454951 149.0268839494793 230.25876605407902
175.65106344122734 201.42654846627855 312.7933840115221
209.15878564035864 270.4447095138407 378.0949130255651
219.90271438999412 246.02123024683158 167.0896972709314
201.76317832084982 257.74266460855085 164.3909210777027
202.6385544952203 259.7405941315812 362.1271603241672
171.09042028415558 189.99286877192105 296.2892841425342
170.32992895354903 160.9515552270619 240.3942477590395
159.8004129853948 167.46628579593136 238.60582169821797
250.092074724131 179.18045158833965 321.1742945890934
162.67633036988445 179.06073323567196 296.62727524225744
373.956442795705 232.06508281460555 286.06785434937206
138.4736426681228 250.83482122089646 237.2139926952447
335.0028223890516 160.13230455972334 288.9593068838852
212.20231171635672 170.88703109556528 154.35826549043472
374.91204772716094 262.0055633324272 168.55172301460604
327.9094364385185 240.85519404990944 351.6942531034219
290.68732248032546 159.3095328291408 160.67905868815845
258.96570776038664 139.79377087246462 310.7561162459479
162.1474910489755 262.85416704283347 131.61523229495518
167.810399297036 150.50025889623367 265.6339831685361
196.35305649411742 247.38773057235213 362.79649961951753
337.66106535006753 167.92392937164507 198.08801711605597
306.40571549344884 215.04446270074135 130.34937015572595
218.11349601017793 242.74558714106098 110.77245803027255
312.5281769838399 142.65427214093341 223.831772304483
184.61840807279398 267.97427521150496 350.8159375756511
150.75835232917908 288.8425868116323 247.31878660208443
219.90271438999412 246.02123024683158 167.0896972709314
201.76317832084982 257.74266460855085 164.3909210777027
152.04215861057511 273.0203805790811 236.18411416732243
195.8487534773045 262.810883329991 350.09122879092223
309.6126082956724 152.49936248323394 220.91456226139803
218.6690853727075 241.7097835536829 119.79134018576572
304.7347979506389 216.3805551842724 138.49512551154254
330.43422572915716 172.87579183137322 200.99003167356474
198.46719162816402 252.7690328899889 355.9264306370743
169.98200088969276 158.73108908739394 262.97865460639
167.68950228206276 264.49768157127784 138.03790942403432
261.3622968012651 146.00350914552791 305.20285303740945
290.8169923220696 169.36777282927494 163.5580844466844
324.2401464940509 244.49106459417638 346.25582814199305
368.013531789003 263.88174859555767 172.50522667455948
215.49450580954678 177.58683214608834 157.46421379305562
329.9539137054838 166.40526215603285 285.3639728280127
144.97022869600747 258.30254982666077 234.094948686179
366.0299590305788 234.6695484686719 281.3350526913634
167.72572556869662 183.33079372504415 289.4170493604634
321.50183789431185 272.05181053745014 259.8111886471545
253.85258101858327 172.53650676684353 308.8276809732683
166.3761972025688 171.46882526838425 245.24987194849524
219.90271438999412 246.02123024683158 167.0896972709314
201.76317832084982 257.74266460855085 164.3909210777027
172.54274582845744 174.70463240180152 251.4765095991779
258.95291953159517 166.89948159660636 299.23619027186254
325.50921599367143 267.67596297829584 276.58944546920367
172.29773499263175 186.15791951624746 282.7835101033191
357.3658536326703 237.3051027087744 276.18821199541486
152.50660336162946 264.5904732391761 230.70917453491018
324.3693115263435 172.62733540476884 281.36832959349834
219.19091356360443 184.35246047400167 160.85508277203436
360.72096669331165 265.83587781174447 176.6119110301154
320.2451873357009 248.26841824367457 340.40205609599707
290.79429054559176 179.75739434997277 166.71963557933
262.92658623635776 152.6352096530704 300.31323734594594
173.73844431021962 265.8718966200983 144.7892788354543
172.88771008064205 166.82675313553455 261.0266620904405
202.017516143103 255.54545109895253 350.9377758947331
323.03735530583435 178.2679918125613 203.62718778403584
302.7262923804103 218.0957612682077 147.71888457117086
219.48612718833425 240.57484322983362 130.3313529458223
307.3356879855492 164.45575354564932 217.29415930239642
219.90271438999412 246.02123024683158 167.0896972709314
304.9249104588669 181.44822358049072 213.08363537846697
201.76317832084982 257.74266460855085 164.3909210777027
220.6234834471947 239.51436071523773 141.75493885040228
300.3389244648513 220.7223325988197 157.567396970263
315.6753948604022 184.08604534324974 205.98139028328885
206.08730281210842 257.3933533669326 346.1887147581158
176.44973639025167 174.04471973968808 260.4485550952892
180.31368727901514 267.61902501731157 151.04773660883123
263.7724851784643 158.74385671235547 295.42651962876323
290.4388634887195 189.96651403322656 170.33190574878054
315.6441868813498 251.72676780052615 334.07428072993355
353.08237071898776 267.87663700751307 180.85234911084706
223.063166795839 191.37961246944568 164.3438172546799
318.8853197480753 179.1414711255433 277.85756335279166
158.12608399789343 265.8651445586904 226.40682300194737
347.5516304359434 239.55495411990668 271.02104818484065
327.8970146686953 266.213028933779 284.0313912717258
177.2431214382695 188.98058670926198 275.7355191906878
219.90271438999412 246.02123024683158 167.0896972709314
183.4700709251421 190.30225731338842 267.55856316711265
320.4730421960729 265.412827984791 289.6595201622343
333.47139711174043 239.08982999405512 266.88937240027803
165.5750833137768 267.56682124433786 221.06706160967488
313.1688737867031 185.538803448107 274.90756096568447
227.08103223580773 198.6126718240656 167.9535262514764
345.0655994751854 270.1077159893449 185.08890816100612
310.74663499412685 255.28385164840157 327.4941705481254
288.8838241587716 198.0503183011079 175.31170197951985
264.8216273374825 164.04914623388981 290.6022275984614
187.13695013947415 269.49137922240385 157.627267468011
180.49140971131325 180.91151467718143 259.3720801078098
210.5081826566347 260.0208688578172 341.08955318075675
308.09209974275194 190.08054153043065 207.96191494432543
298.21159628623064 224.01787796114047 169.13406978738263
222.11928695140597 238.51177927536648 153.46920201065066
201.76317832084982 257.74266460855085 164.3909210777027
208.5816225621329 276.7457801218263 165.7775994157521
219.90271438999412 246.02123024683158 167.0896972709314
224.22370342216524 237.4181725749544 164.5221329428965
300.8345753606694 231.8623311409674 185.46728108770427
301.14027021648224 196.3960342847717 209.01445695663318
215.49835469962775 263.0791369435409 335.7912659251337
184.7736960421717 187.34655455787313 257.96681088266774
194.10644937141603 271.4584154523555 164.40544349639816
265.616752222146 169.66763686474275 285.5324270423632
285.99469022333034 203.34858829883947 181.5267231763559
305.2608835470895 258.66629351863367 321.0975490074498
336.8467133993605 272.37365914175194 189.48639624913076
231.22962721091903 205.97966059788988 172.16431480889855
306.96417316654345 191.4489207696066 271.75685297156406
174.58362300116872 270.01236414553296 215.0345420082406
310.67448285607645 225.7879359895481 266.5213981100403
310.15932286819026 265.72996400359045 294.63702328135594
297.5220416937125 265.58653983367 301.62244132089165
297.6227580624619 210.61716301809963 267.39381640107877
184.6374235754945 273.3884357597346 208.7486254328089
300.10695631692573 196.95181831474292 269.5816952281598
235.372206254889 213.37310803259084 176.61975920164414
328.46489473120977 274.67939429163937 194.0111455933194
299.12737962057685 261.9702732672302 315.21666971779234
282.88176147631725 207.87068823779447 187.83751042116282
265.86729683361 175.5753096107118 280.3450788963736
201.0668835470853 273.46292894576055 171.32799073314646
189.13725948180658 193.6424770739958 256.2898825492402
220.58268829970922 266.02882338623255 329.95949268589953
293.28918852804924 203.5338261200363 209.68528478284048
304.09925497711873 251.7135129562177 199.0328116178378
227.92047096793902 235.83358320774877 171.95332893733456
233.5846143393039 234.29246124898464 178.73997760738987
307.6262164446415 270.5003150508419 202.65860854787334
280.3684367157377 217.91574372530798 204.33631549305565
226.03383433575027 268.61444577724893 323.67352757227326
193.7528805711566 199.71690494743805 254.58249430517336
206.65876039038557 275.016145594314 178.52042584862033
265.1766379381679 181.76356947467008 275.6401418129728
278.307024681316 212.59379661857201 193.2870452727537
292.08628293258 264.4446970229874 309.97671334336604
319.96027025400167 277.0287970160268 198.63901479523895
238.6597904101124 220.7710286705218 181.3941575096218
292.51002311861595 201.53155510744818 268.1595089735735
195.22547465567035 278.029782191104 202.71059642653526
208.61941450921353 281.21043449893494 197.10551164077225
284.7535677171737 205.3089464954346 266.62408321623735
242.46194648938618 226.81864563986895 187.31655766731345
311.4487363346188 279.47250911599014 203.32457339238906
284.9708011707298 266.66760028620774 305.8007994217084
274.02746588361435 217.9509493009301 198.21395301043302
264.36139746723836 188.23404954157607 271.3139348101991
211.6785091871046 277.4441705105495 185.38838880304536
198.59964068454755 205.70471915070308 252.8139369579897
231.6561284238845 270.87910117725136 316.8536196723265
237.4178440343563 273.299792747907 309.7099568672766
203.3959682456919 211.88225335968465 251.53671881436892
217.0445097388453 280.1633984382383 191.7812770502946
263.17898226156706 194.8634689113448 267.0299900827088
269.4797625659324 223.24325119795478 202.7140495083064
277.5164835784107 268.98242464397566 301.46451112557907
303.91655726364246 282.54054913770585 207.73875815386285
246.5269811980236 231.76112072251237 194.24517692118997
276.44835877476214 208.85243342858692 264.95023738107614
266.66095187286504 210.98415124695356 261.3298015174202
254.19323635636016 237.30680663118991 207.1189718018077
295.96761284486786 285.54182330540124 212.24823775674858
269.82271746275967 271.3549030882819 296.9347692629961
265.9306063125661 228.46268840055586 207.88293937985904
260.7699142428433 201.3386956602421 263.4709381420894
221.94964183912887 283.355711737684 197.9320462626471
208.32092817484207 217.95518565741864 250.85096164117186
242.87518289749457 276.0562091692007 301.5578352321501
249.13723626900344 278.3194793897153 292.8341722939184
213.56168621452227 224.01611328018214 250.24520781187832
227.07526203026913 286.5471734092967 204.37907195121664
257.6821757237137 207.38492768919554 260.10101899033117
262.59931049929395 233.56738381409696 213.37420729149645
262.45249844890054 273.4769924895209 291.923793940566
287.6230322550171 288.2374930414068 217.13429477301827
278.3459389350333 290.1272580147074 222.26833059943877
258.0626481437581 275.80709886010465 286.0869410603177
259.4445943565875 237.97171604603864 219.1712122771325
255.1217729386926 213.67826586168255 257.2050579539583
