242.378556375913 256.8906073364307 364.1083802975888
286.9762696917081 200.29610954544177 190.85851548476492
167.95749613549535 226.50044091661945 222.30318370578274
216.9899210822126 276.49420002486505 150.6007047944763
300.20289868872544 202.43485029357848 190.35975963403712
169.255479995756 217.8195848506044 203.54735675069935
174.3340295956607 261.25077913430084 167.9907852974171
258.86689963815024 258.2393557233038 366.92589402215276
177.10991516703095 229.25673089051884 312.985163339748
309.83914915899607 229.4969911079962 171.68463341866627
278.03886840367795 193.09386294089654 309.8331837009677
198.46071411375613 202.26315843550304 190.5806558890047
323.0641388353288 251.81877392089487 325.4524107482674
317.9445334549017 233.7698181326243 185.395845986616
172.1484045283097 233.79454080942773 301.3328100154884
181.11844052863415 223.1129832504821 301.71428033596925
169.76876643394337 266.61741395877976 182.25527610844995
281.2615968862097 194.03026464086554 305.15028702122356
278.03068091629837 201.53287685996182 194.18191096817316
281.36722398058487 203.047889751427 193.4102088237958
280.6631190687356 194.78456329313974 305.304840587517
171.07771939926033 266.02970611862327 181.1231355478749
181.28084006573118 224.1188234407147 301.7310387038048
173.05077799247246 233.83472630220945 301.49826449515
317.0076250324651 233.71885970017084 185.50662146227384
322.419863143834 252.1340575096902 325.16948370423387
198.60239516335685 203.03647687950473 190.93191457164113
277.90097634826424 193.79279396074006 309.30368064927916
309.36466452257434 229.61273783401526 172.47904290972312
177.6045421946934 229.62155200218984 312.41170691880666
258.1056210636183 258.32950730967485 366.14962072586286
174.9844704296434 261.42911007809624 168.79786433020902
170.07257626559544 218.37261615263867 203.79402430514043
299.56025067738324 203.22662378959 190.48528380812394
216.51204041674058 276.25168048143 151.28767075093512
168.84041598300334 226.79404435671026 221.80823267925797
287.04811705473475 201.30132079566823 191.1269110729897
243.1499022919257 257.1971687886243 363.5443606722631
243.92461797119958 257.5068241110979 362.97633648075845
287.14768551602083 202.29990425013762 191.37227263837846
169.7310197627923 227.08931153680737 221.30839232867652
216.02730494141443 276.0072814994546 151.99140097050702
298.9170410639649 204.01929744616945 190.61120626812516
170.89127731653863 218.9276583134604 204.0413791076278
175.63684309617003 261.60986140862576 169.60886824601565
257.3429617252017 258.42154166440145 365.36741033516984
178.10064965346064 229.98801317855055 311.8362574332912
308.8884321229437 229.72852690622733 173.27544423587247
277.7607900624142 194.4937789971644 308.7738022969495
198.74453661122433 203.81290506001355 191.28438173898093
321.77209409721837 252.4509052488949 324.8851161664871
316.06489781765964 233.6680933792666 185.6179070247773
173.95927088222544 233.8745986984371 301.66405196890173
181.44606146535344 225.12856751484108 301.74709870708045
172.402501074459 265.4381164600687 180.00018804920902
280.0630956174492 195.54088263110248 305.46403758270094
284.35187491596446 203.62695144680728 192.62557268697063
286.40755389257504 204.35997770488368 192.1775461359488
279.4601995638264 196.29953665841475 305.67221146979097
173.7402574312101 264.8474660466301 178.89235260287145
181.61404673099474 226.14206661396335 301.76246058527954
174.8737166396719 233.9141745210121 301.83012110228566
315.11584904607315 233.61539220582762 185.72828586913698
321.1208744512806 252.7693057405831 324.5993289126795
198.8871695151622 204.59240955982918 191.63800965772944
277.59255481550406 195.19735058216295 308.26009026414755
308.41044803953156 229.8444161768826 174.07369324873255
178.5982167209451 230.35610865601527 311.2588530619354
256.57912997346136 258.5153698674338 364.5796695655204
176.2910495014379 261.7929573342566 170.423621039748
171.7115293003654 219.48466572606856 204.2893902276643
298.2732819368549 204.81285685828746 190.73752434652147
215.53598416723975 275.7613317035261 152.71184667738515
170.62911281446296 227.38612883461664 220.80387230660392
287.24787128383065 203.29878198937857 191.6173580757878
244.70257517639533 257.8194636321434 362.4044244004521
245.4837261869778 258.13492364996927 361.828741280182
287.35369703426454 204.29167349009907 191.85885108318345
171.53449793914334 227.68438744660335 220.29487676013184
215.03835548597996 275.5141510845148 153.4489178893946
297.6289902404077 205.60728715338445 190.86423973409674
172.53328045139824 220.04359382073957 204.53802807349157
176.94701453397442 261.97827311897686 171.24185212907562
255.8143795778213 258.61096146034316 363.7867892754786
179.09722190239862 230.72583443544426 310.6795358491349
307.9297562104626 229.9610573094553 174.872503542702
277.3933214756895 195.91678881398502 307.7999394288151
199.03033326952095 205.37495893924577 191.99263912301257
320.4662471404987 253.08924735460772 324.31214270092823
314.15684373751327 233.5479080105735 185.82930624994464
175.793964114696 233.95354265950138 301.9965612561983
181.7845705704041 227.15967504907613 301.7771745355473
175.08705855670823 264.26625087240524 177.8113616052707
278.7724607063296 197.01110592769444 305.9722449956002
277.6985467732737 197.54252020366317 306.66545083960585
176.43640726019703 263.71026746222736 176.78048272910928
181.9561360429641 228.18568609657336 301.7916583232071
176.71997828878014 233.99336209078422 302.16454233568663
313.16549266245875 233.3890639149116 185.8707502213833
319.8082552404682 253.41071823936878 324.02357825455545
199.17425296031473 206.16060743282506 192.34601487450513
277.11378253886596 196.6480481566228 307.45590136570695
307.42760457999555 230.0902961275668 175.6489831240313
179.5976274105241 231.09723759561962 310.098443766831
255.04938704415437 258.70861633190435 362.9892241664376
177.60476555853438 262.1653917721197 172.06269616616785
173.35648101110758 220.6043990597876 204.7872643486725
296.98423366222596 206.4025666376681 190.99139786137494
214.53470158413168 275.266048541425 154.20248532583358
172.4469762910415 227.98398354318064 219.7816038859205
287.5248968543095 205.20355721707517 192.0570917162063
246.26847190609078 258.45271114541754 361.24941335860643
247.0598501381782 258.77038430895334 360.6666244719379
287.69725736131164 206.11929886971336 192.2556996504548
173.3663482143979 228.2848183425489 219.26424553614515
214.0253079407908 275.01731974149743 154.97238274091652
296.3395878373036 207.1986024979376 191.11947942644505
174.18108315392567 221.1670389300288 205.03707200778578
178.2648921071208 262.35215781976285 172.88171974244017
254.28747471459513 258.81055955906777 362.18797313081893
180.09900196770386 231.47158950059045 309.51800683594905
306.92375580989625 230.21974295689444 176.42709276022637
276.83723756181814 197.37910080339077 307.14712958053025
199.32270605744782 206.95101803339685 192.65631209083693
319.1469419313319 253.7337063326936 323.73365624737454
312.1681817433611 233.23068391873772 185.9126140665105
177.65265775297792 234.03878997094722 302.34374264878346
182.1172027619919 229.25574544826958 301.8092458087702
177.77614689788697 263.20970236692864 175.8458181224942
179.08202754032385 262.823021683073 175.09863876636228
182.12399217871035 230.5563446141448 302.053069880404
178.6004879851151 234.13048443923063 302.61105559921896
311.1648321934638 233.07232435118723 185.95415763220063
318.4823504622493 254.05819937280185 323.44239728953426
199.47047988434923 207.74471473277134 192.96676355497615
276.540819440424 198.08321006413226 306.8632696170153
306.41825337219655 230.3494090077884 177.20677374523123
180.5914089513456 231.87928729852044 308.9953317324732
253.54782918489792 258.9303232948126 361.38751473707794
178.93119215794593 262.52608683049596 173.67323874473806
175.00704091448594 221.73147193318064 205.28742521158128
295.7006923112785 207.9945801282223 191.25329335942132
213.5104604585084 274.7682453239706 155.75840960655097
174.29241400311088 228.58679805780778 218.74298675444814
287.87034744728544 207.04043334591972 192.45251251531988
247.87654294140663 259.0740249423132 360.08086008376296
248.83019994840706 259.2821770699013 359.49410089471286
288.0401684922084 207.9869658185098 192.61926380225748
175.2249745163146 228.88983352183527 218.21800478447938
212.9904432678455 274.5190894595565 156.56033406413377
295.12365142312535 208.78237995515454 191.44068557380234
175.83431011652166 222.29765757416558 205.5382992814957
179.62587955407932 262.6133392929032 174.28512985203048
252.94420706152187 259.14796563023236 360.61378279339255
181.07377534228746 232.32232840281506 308.50576653770196
305.9110948998579 230.47930005297312 177.9879290642689
276.24320012919554 198.78965286663853 306.5786568932261
199.59378560184322 208.54762249850933 193.26364916791223
317.81452411694823 254.38418490932798 323.14982191393017
310.1544171697649 232.91168865700106 185.99168941399512
179.55255120380875 234.221211546787 302.89204169192067
181.90420680665267 232.15639352679182 302.64110607001464
181.8492410370116 233.56552463423273 303.30248762003765
180.50250271208404 234.3044347660931 303.26354896359857
309.1311842634519 232.73731391244672 186.00693342712228
317.1435061803954 254.71165031437465 322.8559505631904
199.71765848019228 209.35339985917156 193.5613180585718
275.94438979330437 199.49839782297954 306.293301122519
305.4014040266398 230.60934282016692 178.76964698412675
181.5734111697458 232.75734062005105 308.02609308895285
252.34952387677637 259.3678823100258 359.8367678260068
180.30431821080379 262.66420131705456 174.71953871056593
176.66284830403595 222.86555634534892 205.78967065026924
294.54649684121597 209.5713247814812 191.62858141430053
212.46553673735013 274.2700987650071 157.37789606510353
176.16383140684076 229.19383870735723 217.68946577323578
288.2111927250086 208.93776815394793 192.78635821053183
249.78843594737228 259.49378692930173 358.9042058269011
250.75869435275467 259.71793996366074 358.31006484826986
288.38593660340274 209.8927811022484 192.95319450310978
177.10878603068082 229.49872506634486 217.15751220182636
211.93601571209268 274.0215015602984 158.21081062449466
293.97358070341056 210.36277945734318 191.81717117769662
177.4926146785242 223.4351296894683 206.0415167806813
180.9881448696318 262.71606723325965 175.15632332715813
251.82096173260837 259.5884071018883 359.064731747443
182.06241682488107 233.21071552092684 307.56799739507056
304.8710739607258 230.73792367534668 179.53480659728905
275.6443995592031 200.20941372233347 306.0072116934877
199.84211307553738 210.16200152611796 193.85973426367988
316.46933990661626 255.04058279357133 322.560803577241
308.06578416458336 232.49233164990895 185.909518747467
181.41864960331557 234.40220808006598 303.6473016637392
182.10830304208153 234.5855465517743 304.10031865623347
306.98943024083667 232.24592899363137 185.79958267585826
315.79206848769076 255.3709693971131 322.26440118145393
199.96712476956054 210.97339469370132 194.15882762038672
275.343241431643 200.9226695736764 305.7203976735638
304.3391262079873 230.86671708067848 180.30122783201944
182.5669181740546 233.6620820975038 307.1212577047294
251.75512740337606 259.79851520216357 358.3562739394306
181.67730749434858 262.7689340952098 175.59551806541435
178.32357007080924 224.00633980286688 206.29381582852258
293.45246320736163 211.17174411506426 192.00859273366387
211.4021479974109 273.7735074441829 159.0587711223895
178.05963343265836 229.80437965306191 216.6222136688087
288.5933801241044 210.85202656583317 193.1127929522732
288.8713256816995 211.82356987513967 193.27708846772225
179.01613745217236 230.11057997844384 216.08337337743677
210.86419310396144 273.5263071489774 159.92145261094387
292.9752374003233 211.99760948988123 192.18744547545856
179.15567716831936 224.5791481786208 206.54654427113584
182.3717499172936 262.8227992444796 176.0371567187664
251.77861102136362 259.9994913670324 357.7054584242923
183.07307202509827 234.11531656034114 306.6730899742792
303.8048226197441 230.99518931573053 181.06811379573284
275.0409282119009 201.63813464154106 305.4328678157724
200.09188651515248 211.78783357858646 194.4577994703485
315.1117350239443 255.70279703075556 321.96676347537834
305.8882450881936 231.99223375737859 185.6406129140492
182.81254934072703 234.77676958921037 304.5591757095199
183.57199383874223 235.00042487949116 305.0310057852182
304.7062610598829 231.70781285017497 185.288342139748
314.4283824953497 256.036052466743 321.66791042205483
200.199321078328 212.6115684582276 194.74064354011762
274.73747341790494 202.35577847539446 305.1446305681714
303.2520513893722 231.11214449755042 181.81966399518907
183.58122315438095 234.56936200128524 306.22647235321926
251.80301843885746 260.20263316888975 357.0478117765726
183.07141188820745 262.8776602375214 176.48127221827653
179.98890270839217 225.1535041480069 206.7996583804226
292.60880417178475 212.84048361837736 192.3949210823397
210.32240128578508 273.2800726075465 160.79851513844608
179.9779329429334 230.41666165009127 215.53976683575195
289.4934679478142 212.90498515903312 193.31900048163791
291.15608993022266 214.2834069483457 193.02818718718797
180.94414625501778 230.72021952671284 214.98614626368885
209.777012963926 273.03495709511037 161.6896072436631
292.34622896179184 213.70599990171166 192.596612064682
180.82323488302984 225.7292539786838 207.05294743260183
183.7762291560514 262.9335147724731 176.92789634795102
251.82836059392625 260.40793329212255 356.3833864714942
184.10309054257317 234.9899926134364 305.8782978023227
302.69769336066645 231.22922367815363 182.57223442295071
274.43289120681874 203.07557093321887 304.85569408551873
200.30730751439532 213.43789552108106 195.02405603505213
313.7420537341508 256.3707223546474 321.36786183790974
303.5082978004018 231.46063667178618 184.9576870288977
302.2781494571276 231.3215957694747 184.6951309371133
313.05279139871305 256.70679323209794 321.06663738322516
200.41585410699602 214.26676524087034 195.3080094730453
274.1271963005287 203.7974821998968 304.56606624273434
302.1407268060386 231.34474641121125 183.32285270509172
184.62749538549102 235.4017054353685 305.5594165394513
251.85464639606482 260.6153827572906 355.7122392700873
184.486133583159 262.9903606166607 177.37705947085283
181.65881845390174 226.30541884029432 207.30486858117018
292.0856392463494 214.5713814440897 192.7975350749425
209.22825881831332 272.7910951092879 162.5943701729627
181.91192685855447 231.01202911476005 214.4014510208997
182.87077329997703 231.25618169179074 213.70239709622618
208.67636139469138 272.54860106931017 163.5124445305016
291.8812395790246 215.41039369947654 192.97805219524358
182.49700022569974 226.8744581776455 207.54329626978927
185.20105329053925 263.0481955356683 177.82879026918891
251.88188266605943 260.82497094451725 355.0344310278199
185.15454141061198 235.81582416505486 305.23896338058984
301.5582958551352 231.42198961979926 184.00716913980213
273.82040391436885 204.52148280099834 304.2757546497527
200.52497010943205 215.09812643252815 195.59247821168873
312.3606379486036 257.04425153538074 320.7642565531792
311.6656356208971 257.38308360989066 320.46073866944926
200.63471645610545 215.93189779818272 195.8774527180872
273.5125296893258 205.24754361255597 303.98476666739435
300.9682996027812 231.50030840776944 184.6376656875804
185.68421055360963 236.2323302363694 304.91694057200596
251.9100740944842 261.03668562581294 354.3500264888121
185.92091283263156 263.1070172248179 178.28311550135388
183.3484103150701 227.37668587138938 207.67207033881567
291.67567233758257 216.2566291071272 193.16232017544021
208.1215407232415 272.307564200561 164.44348446851444
183.78063022339853 231.31236039297067 212.5607281150404
184.4730288575222 231.08852512784804 211.4898035105704
207.56403125345042 272.06803191576864 165.38719453355407
291.46921719602324 217.10530736090132 193.34696348329453
184.20283832761348 227.8801270272368 207.79593398644485
186.64563339932863 263.16682324386085 178.74005977864402
251.93922321905944 261.2505130057974 353.65909406804445
186.21648910660375 236.6511945350581 304.59336347512516
300.3759335296827 231.57882779557022 185.2695322421895
273.2035896278817 205.97563586738593 303.69310942391957
200.74631205121443 216.7673412680712 196.16324986516906
310.9678264077026 257.72327572041763 320.15610287236905
310.26725203490037 258.06481406125175 319.850368113631
200.88629448537617 217.58933687549307 196.45727141273517
272.8936000335836 206.70573115848322 303.4007898319626
299.78124146647275 231.65755688615135 185.90274928818275
186.75156919547712 237.07201479339304 304.2687323137809
251.96933042076415 261.466437770188 352.9617056239917
187.37513304264905 263.2276109556136 179.19964536402415
185.07478325036075 228.38116287184795 207.8648172389439
291.2618496198615 217.95639804663435 193.53199690671272
207.00413140837347 271.8299590981694 166.34343382850471
185.29593602542383 230.7284565529726 210.26491414545742
186.47310045200132 229.9550831978147 208.6038115359636
206.44234781249975 271.5930567225769 167.31251943558138
291.0535456578055 218.80986766828346 193.71743374324254
185.889139078373 228.88400012271097 207.84504081144206
188.10932692506998 263.2893774691957 179.6618919949407
252.00039393827487 261.6844431413398 352.2579362240843
187.29762336877306 237.47996884283808 303.9622891566563
299.18426659549027 231.73650422344656 186.53729760830146
272.5825774543677 207.43780143997844 303.10781460558155
201.02693980504318 218.41359265906073 196.7517713159374
309.56395394207624 258.4076847660919 319.5435531495222
308.85797326363775 258.75187391774483 319.23567653468206
201.16824736606594 219.2400627368331 197.04672909002457
272.27053862961833 208.17181902610275 302.8141902771941
298.5850515286128 231.81567775670663 187.1731582880027
187.84632190750668 237.89018172135127 303.65437230264473
252.03240990000663 261.90451094006244 351.5478639053235
188.84812758623218 263.3521195884326 180.1268167317462
186.70043770919992 229.37896506152435 207.8186847765018
290.8442822804671 219.66567979169852 193.90328583428203
205.87981487680625 271.356343503638 168.2961190792191
205.31951577347277 271.1168212490055 169.29988619918322
290.6340376863032 220.5237952331393 194.08956359585963
187.4605099274771 229.77751414654497 207.72310003995113
189.59144522451166 263.41583376588466 180.5944338328411
252.06537237276842 262.12662165289777 350.8315694322576
188.39764184456732 238.30263249786526 303.344985657431
297.98364014932935 231.89508367062894 187.81031322978188
271.95750044090204 208.9077565885637 302.5199232142009
201.31021554065492 220.06870167204488 197.34212528565664
308.1493508110926 259.097367557602 318.9267566163698
307.4381270564687 259.44415169488343 318.61681152922796
201.4528417944214 220.89946456446114 197.63794147266574
271.643479866287 209.64558715269038 302.2250196351329
297.38012325830147 231.97469711128375 188.44875815047948
188.95155923730775 238.71729951006157 303.03413375604276
252.09927342581813 262.3507545040188 350.1091360543778
190.33918798981568 263.4805160628543 181.0647546571702
188.22567831237967 230.17879593681081 207.62695249984947
290.4227915714952 221.38417228613082 194.27627605011637
204.76983622637337 270.86556347701867 170.34124901541338
204.25490953772055 270.57616483095364 171.4724516226927
290.2105253657719 222.2467669824332 194.46343086368697
188.99588872803344 230.58286430827036 207.53034228052454
191.09126228388175 263.54616211561233 181.53778759426328
252.1341032089162 262.57688753090827 349.3806492648162
189.5080491824922 239.1341604136517 302.72182177316546
296.77577139538215 232.05373662662973 189.0888226105051
271.328493938133 210.38528409266277 301.929485625186
201.59612275198756 221.73230712524926 197.93416032174972
306.7243421168527 259.7922123156385 318.3058591905273
306.0080357400208 260.1415353914953 317.9939172958796
201.7400540121341 222.5671856341449 198.23076804341454
271.0125597042214 211.12682112609855 301.6333271510334
296.20115281617313 232.11268707260274 189.7390427989738
190.06708569391773 239.55319242645805 302.4080557115672
252.16985004283342 262.80499766298396 348.6461965620361
191.84757306414218 263.61276710801417 182.01353802174214
189.7710749285516 230.98976728041745 207.43337113394276
289.99722253637174 223.11153344333366 194.65103446900167
203.84473259778628 270.1706179029673 172.8487541985395
203.43560119219873 269.76520850711586 174.24830220035955
289.7828712299175 223.97842571162607 194.83909388942988
190.55115987313462 231.3995444078818 207.3361398106969
192.60802414532984 263.6803257508856 182.492008291282
252.2065005206666 263.0350608023668 347.90586721600187
190.62863589702542 239.97438020661485 302.09284979591496
295.62452934292986 232.17180690343264 190.3906924408982
270.69569419208176 211.8701723082307 301.33655007483304
201.88462426668016 223.40405452723883 198.5278108283308
305.2892472911353 260.49210688815094 317.68100331540205
304.56801574047887 260.8439127735964 317.3671344903184
202.0296792384793 224.24281179790364 198.82668629743833
270.3779143763652 212.6153120258725 301.03916016736474
295.0459226599542 232.2311282541563 191.04370198068344
191.19242794899893 240.39802667313688 301.7765202666309
252.24403961825618 263.2670519060229 347.1597520401103
193.37251847729343 263.7488322710422 182.97319775546012
191.3360659540608 231.81220653023428 207.2387308792575
289.5675188248724 224.84743174518098 195.02765563316675
203.0274796458843 269.35832569344456 175.67044260059023
202.62007873241583 268.9466316722884 177.1148317883116
289.3524607777379 225.71931330074327 195.217653770995
192.12582021116927 232.22752220880258 207.14103265143464
194.14095825152847 263.8182804333847 183.45710294125342
252.28245081197866 263.500945068559 346.40794316996147
191.74871773061162 240.8370885494176 301.47135812494673
294.4650532605604 232.29130803433782 191.69676202280434
270.059237149134 213.36221499133214 300.74116312025075
202.17180981491654 225.0820917061727 199.15967860844978
303.844379652195 261.1969390260709 317.05232782998115
303.1183771740058 261.5511716417416 316.73660010929825
202.31563657556168 225.92294087029785 199.4926678884744
269.7396792936516 214.1108562364087 300.442564557065
293.8739537186105 232.36910748656052 192.31649308400742
192.30740181529532 241.2782741487291 301.16483033793037
252.321716202201 263.7367136050049 345.65053384985276
194.91324368675782 263.8886637846122 183.9437187170872
192.92169370208413 232.6426992500726 207.04082741300786
289.1661982790299 226.61184395272772 195.429426384956
202.21260975071456 268.5234257831747 178.58174255132116
201.80327543146672 268.0754283504076 180.07268368635505
288.9796607177172 227.50674208861219 195.64082919744027
193.7386237057979 233.02716250057483 206.91292294139643
195.68926138066848 263.95997762638444 184.43304716840822
252.36181664073024 263.9743301329753 344.8876182276948
192.86845097678477 241.72155853833505 300.856945631744
293.2810597437203 232.448126218423 192.9374423817124
269.41925748435887 214.86121110655358 300.1433700381674
202.48335297470166 226.76032952947233 199.81774559100455
302.39004602787344 261.90659664210517 316.41996786654835
301.65942350157457 262.26320008110946 316.10244740156855
202.651738831552 227.59941735981926 200.14316226796234
269.09798901732154 215.61325525416592 299.8435849004041
292.69244988211403 232.55166484844497 193.556843754567
193.43183550755543 242.1669163284776 300.54771334582847
252.40273186066463 264.2137666536662 344.1192911588793
196.4687898462217 264.03223476071645 184.92516734187026
194.5603877280249 233.414577679409 206.78515660195168
288.8071801385398 228.41477977708522 195.83405686220217
201.38822249224924 267.57645854046183 181.5916557835111
200.9593965509206 266.9750046509837 183.14770008454258
288.6853809153281 229.34346622368759 196.02467107591673
195.3868365285022 233.80493603501176 206.65761848729926
197.25074713832456 264.10559114999205 185.42078660238423
252.44444060714744 264.45499463120365 343.3456480194759
193.9975317761365 242.61431574954366 300.2371456817649
292.100107488305 232.6995787587617 194.15011902153378
268.77591499787457 216.36696458084958 299.5432090346513
202.82078570998982 228.44016756191996 200.46890603584114
300.9265464411531 262.62096805199354 315.7840547742982
300.19145124421925 262.97988669384614 315.46480580366244
202.99048492070804 229.28254426680658 200.79496568674847
268.4538161172129 217.12231307720123 299.24207564896653
291.50598861988465 232.84957006250787 194.7437564054536
194.56578710787974 243.06347574181635 299.92534987564795
252.48692076763814 264.6979850699265 342.5667845289987
198.02721070880872 264.1813488227829 185.92560344566468
196.21781739755403 234.1982207231332 206.53039175232385
288.5660792917823 230.27505385149595 196.21566204842222
200.50016569521458 266.169778607132 184.76007353226115
199.97642099580295 264.961613416878 186.4687542221614
288.50654375954576 231.2279324627629 196.40603879457993
197.05317589209116 234.59440700924932 206.40355220312745
198.73589257469095 264.2699587502701 186.48483378075437
252.53014950044093 264.9427085892457 341.78279658286624
195.1479032082125 243.50397638262305 299.6162740584632
290.9129523390768 233.0423574578461 195.31365498524553
268.15529061220946 217.8791895053659 298.93488100105424
203.16082757143363 230.12651253250766 201.12133065083262
299.45417385406057 263.33994219788235 315.1447160667792
298.7147497545319 263.7011208134402 314.8238008984746
203.33180468737314 230.97203830916578 201.44799097450306
267.85604305084576 218.6376767142954 298.62710001091693
290.3214559132959 233.2718823769296 195.84001436385486
195.73230712589339 243.94642744717177 299.3059005171492
252.57410336036588 265.18913549578104 340.9937800945766
199.43355863957933 264.3514694084432 187.04700775290914
197.89276060783152 234.99345929355596 206.27716679622168
288.5280761807799 232.2151432670048 196.64704070745975
288.6651323949091 233.26291360478524 196.8669839653499
198.7364589513693 235.3952960470766 206.1512798874497
200.00885838167386 264.36367894265106 187.61327184943895
252.618758420537 265.4372358525335 340.19983084753585
196.31896575314093 244.39080237158174 298.9942409175416
289.7700841968018 233.57424446519647 196.34478346591467
267.5560884963148 219.39775295345234 298.3187382409983
203.50340902554225 231.81908777385476 201.77493763590007
297.9732139656907 264.0634088536984 314.50207539108953
297.2296010401439 264.42679270111853 314.17955439456347
203.67567568712616 232.6676123133205 202.10217052802327
267.2554593360762 220.15940132817727 298.0098155963342
289.33384449654875 234.00303899703647 196.7941246723268
196.90784558857786 244.83707462040172 298.6813076888794
252.66409038950235 265.6869795449007 339.40104435640797
200.5871250404222 264.3757742043633 188.18339055075995
199.5845417540258 235.79943751242203 206.0257761637849
200.4410760552589 236.20152165810805 205.89901387665066
201.1683302416271 264.3877689438632 188.7573490554339
252.71007472294062 265.93833634339194 338.5975157377993
197.49891035504828 245.2852209158323 298.3671273216207
288.91917478374063 234.43993948122733 197.2338798474289
266.95474677308397 220.92275114847584 297.70080846208674
203.84960954349833 233.51720502801663 202.42988137322715
296.4839450600742 264.79125881261393 313.8562525167787
295.7362796349123 265.1567937244493 313.5321841241513
204.0483815277624 234.35923762150966 202.76262848139444
266.6723414212111 221.6925529335194 297.40672299358727
288.50279605574985 234.87872602863092 197.67519494194354
198.0920234185904 245.7353477242368 298.0522697535162
252.75668672939318 266.1912759629424 337.78933959004644
201.75244491606293 264.3996772285106 189.33513006114308
201.34781299074382 236.55890533931793 205.75420757466804
202.36555955336806 236.92293348735066 205.47785776357125
202.33943934234793 264.41151340330555 189.91671379301437
252.80390166957886 266.4457681187637 336.97660988184316
198.6830435175972 246.19270243885603 297.7588802594529
288.0847190761912 235.31938390529592 198.1180588502669
266.38933821409506 222.46389674736818 297.1121220026713
204.29905890191426 235.15419381362958 203.10850637460987
294.98663789962404 265.5233840568752 313.2073633424535
294.2350525135795 265.8910165185021 312.88180405785374
204.55241901469105 235.94979408044586 203.45369771381925
266.10574948007866 223.2367623638307 296.81700993679704
287.664958096751 235.76198457512757 198.56253376251834
199.27624898030402 246.65192583884468 297.464265895082
252.85169484896934 266.70178257870333 336.15941984941827
202.92928318903546 264.4232920500898 190.50207804230777
203.401119354319 237.28483454927039 205.17694136363417
204.52577534132203 237.61920245711022 204.7248599885494
203.52194555655674 264.43502794245296 191.0911982140822
252.90004170341436 266.9592892121164 335.3378619019586
199.87160502886533 247.1129907794488 297.1684387768893
287.24367753192683 236.21073179432977 199.01219447870906
265.821587300895 224.01112977015396 296.52139126140565
204.85460081903094 236.72366447506266 203.7718149974225
293.48155565997445 266.25967791041865 312.5555199181598
292.726179045773 266.62935513005965 312.22852433425237
205.23770679466054 237.44529361199167 204.04350569261493
265.53686350978074 224.78697916621647 296.225270460475
286.8336031519399 236.67180790732084 199.4535621763382
200.4690768580453 247.57587023729954 296.8714113143952
252.94891787770652 267.2182580352773 334.5120275349601
204.11739502667143 264.4467359654394 191.68404737368056
204.71559979639423 264.45843069232416 192.28059619558783
252.99829929706658 267.47865925338425 333.68200725118425
201.06862968517552 248.04053733499285 296.5731961815915
286.4218867506576 237.13468953287523 199.89635047132384
265.2515896902789 225.5642909639973 295.92865203665554
205.6328223977063 238.13873172073193 204.28380450688113
291.9689539021426 267.00003517482975 311.9008304816955
291.2099109853519 267.37170514548814 311.57245130251147
206.0301751831552 238.834275023143 204.52491696637586
264.9657771756791 226.34304578727958 295.6315405110304
286.0088208494755 237.59954993203257 200.34039825892813
201.6702287977084 248.50696536373212 296.2738062889256
253.04816223159975 267.74046329922777 332.84789048888916
205.31652866060304 264.47012257146355 192.88081186310444
205.92016042475146 264.4817805702352 193.48464648772145
253.0984833537365 268.0036408686166 332.00976555695524
202.27383959823345 248.97512780409883 295.9732547559663
285.6081612798076 238.07578739542765 200.7782763602699
264.6794370490475 227.12322447154844 295.33394042253786
206.45162839610362 239.52299565349156 204.77200134981737
290.44908057810454 267.7443522493009 311.2433995071075
289.6864924912809 268.1179638029643 310.9136875763353
206.87455361036018 240.21405106658776 205.01978772085295
264.3925801437998 227.90480806404614 295.0358563270965
285.20594467189153 238.55382848485596 201.21753930611746
202.87942764685934 249.44499834502446 295.6715548848694
253.1492397874449 268.2681629527357 331.1677195759228
206.5265769578213 264.49296288543223 194.0919215291806
207.13688600175533 264.49916273892194 194.70118085955482
253.20040913276713 268.5340008684327 330.32183841674475
203.4869587008946 249.9165509010401 295.36872013473464
284.8021857509534 239.03365582365203 201.6581745048602
264.10521704477355 228.6877778239485 294.7372927964667
207.29899681241798 240.90694579188633 205.26893089944505
288.92217606606386 268.4925272352627 310.58332776356
288.1561601764487 268.86803008878667 310.25233209493865
207.72713125875924 241.58799153091226 205.53810247931838
263.8173580897627 229.47211522261748 294.43825441688193
284.39690369977046 239.51525484385022 202.10016878890767
204.09639875169825 250.3897596277843 295.064764096806
253.25196926744766 268.80112629717155 329.47220654285485
207.76237561595428 264.4556439152672 195.29831681008258
208.38251798823137 264.4025783761423 195.89769557921727
253.3038955643957 269.06951146012574 328.6189056314437
204.70771405484587 250.86459893169885 294.75970046527925
283.9903408129364 239.9987605797989 202.5434936282164
263.52901337162933 230.25780194349048 294.1387457874112
208.15728461516727 242.27102552554504 205.80785557571429
287.3884732324855 269.2444600098985 309.92071233946126
286.6191431897295 269.6218045550729 309.5884794966048
208.6075238260477 242.94870676745956 206.07335856260642
263.2401927460279 231.0448198681083 293.8387715157999
283.594040860562 240.4918965838872 202.98734530868296
205.3208709966286 251.34104330449367 294.45354278824874
253.35612743141272 269.3391309573053 327.76199854999214
208.93275940560474 264.2661360533564 196.4875293561254
209.48810787607255 264.12956597439864 197.08286908466906
253.40816996121413 269.60998360279524 326.90133833511163
205.93582938970152 251.81906006699245 294.1462952325134
283.1963210207704 240.9867635965168 203.43251324998224
262.95090601182 231.83315060474533 293.5383361373975
209.05917003741615 243.6285946610222 206.33962811671432
285.84819764525105 270.0000480832625 309.2556356125338
285.0756651858504 270.3791223611231 308.92204361514024
209.51218893745664 244.31066211387315 206.6066664504973
262.66116876806694 232.62275995702532 293.2374415310377
282.79719640240415 241.4833468718657 203.8789794002245
206.55226770038098 252.2983128730968 293.83757778030997
253.45435481879255 269.88235426799287 326.03428657299884
210.04766774324523 263.99251670657287 197.68353700701059
210.60341466024929 263.8503705031875 198.28918915264785
253.42746231554327 270.15995670471966 325.128455852455
207.1583670831171 252.76606394585102 293.5113812289595
282.3967196078086 241.98178675563724 204.32650382034268
262.3711952256868 233.41308652895245 292.9360027408686
209.96654697876363 244.99488062620952 206.87447541503013
284.3015947325473 270.75812187024303 308.5853575366757
283.5263305799538 271.1228383475382 308.2081103147854
210.42223615718373 245.6812088371644 207.14306835412842
262.087748735117 234.1862031369445 292.6311040384446
281.99688579497314 242.49023417144613 204.76338610456315
207.77958079558098 253.22356599770254 293.1834083823753
253.4008088833879 270.4385245623502 324.2199258654577
211.07685271321301 263.6564272627112 198.89787554796246
211.55667007796796 263.4623852854414 199.51299198772236
253.37438187926614 270.71803477248 323.30876322915043
208.40260813858563 253.68261076290082 292.85433543442736
281.5957287680743 243.0003891288752 205.20121994772217
261.7847092166661 234.94849348683363 292.3361662044498
210.87998499806224 246.36926121101985 207.41281209020158
282.75208326429674 271.4723672996262 307.79088886177846
281.9731385173085 271.7973987092081 307.3471259364226
211.36175832013663 247.04878304550357 207.69427255216382
261.4644830662255 235.70160335443475 292.0431066707579
281.19498584227784 243.513376106172 205.6266194230051
209.02741710415333 254.14317495693558 292.52417944214795
253.34816915285785 270.99846486343324 322.39503272856064
212.04276303395451 263.26838786632504 200.13430605903918
212.5350146030422 263.07456558404516 200.76158562434745
253.3221590377246 271.2797929489538 321.4787973619654
209.6539761856228 254.60523538394082 292.19295742849914
280.79301105872355 244.02839177141672 206.05343532430715
261.14325779513103 236.45586275461267 291.74964352760963
211.84477590027385 247.73028301723423 207.97654224805478
281.19274351165956 272.12120020545797 306.90005037339023
280.4101401697078 272.4194186874006 306.41724511077086
212.3290025399071 248.41372873588517 208.25961741009644
260.80544251767503 237.20192329799016 291.4604137000059
280.38982720426554 244.54539967779712 206.48163950732848
210.28226114330045 255.06876333205764 291.86068843892446
253.29634034128426 271.5619977164775 320.5601183861129
213.03329643561818 262.8810363110833 201.39460067617753
213.53747069791464 262.68790543442395 202.03312493387384
253.27070233383125 271.84505841507945 319.63905536116596
210.91252984037223 255.53349617522616 291.5274778086688
279.9854555499391 245.06436424807407 206.91120449414444
260.46042166902805 237.9422994362806 291.16151960625314
212.81440362242836 249.09908738465424 208.54349342093138
279.60156090317264 272.68475850596906 305.9369079903615
278.7940479244295 272.92277043391255 305.39779113709733
213.30094519405182 249.78632582120687 208.82816485006794
260.11947755553257 238.67542592543643 290.8656105393948
279.57991604004627 245.58525084171427 207.3421035150506
211.55651860415537 255.98964371189575 291.19694270539645
253.2452347367909 272.12895484318 318.7156661952521
214.0473919126142 262.4952662535611 202.67693717772306
214.56290871312228 262.30320052094237 203.3258223263944
253.21992771037603 272.41366733608265 317.7900071885207
212.20217789677733 256.44716988231573 290.86541848394165
279.17322746277245 246.10802579555738 207.77431052909762
259.7779659101396 239.40989931506235 290.5691594989235
213.78859403347968 250.47541067617226 209.1136254963461
277.9851732889269 273.16128011725374 304.85788919063697
277.17488837508154 273.39986540666524 304.3168817805067
214.27731771054164 251.16630844808748 209.39986843524443
259.43588732760855 240.14569937951117 290.2721715742111
278.7654075195408 246.6326564213331 208.2078000651454
212.84947703244862 256.9060528383396 290.53292154305734
253.19477184079304 272.6991767534085 316.86213307662445
215.08386548079324 262.1117790902752 203.97957227202184
215.6101038418736 261.9210626382696 204.63798649519507
253.16975812712747 272.98546446648413 315.9320970735525
213.49838575875148 257.3662710187516 290.19946810770483
278.3564683224585 247.15910976883114 208.64253802996876
259.09295965704047 240.88262895360447 289.97463748073903
214.7670846341676 251.85898559386405 209.6868860698816
276.3624686364055 273.6344304870015 303.7714671745318
275.54041922592705 273.82443769256406 303.1887079843499
215.25786409023615 252.5534086139577 209.9746701846418
258.7376485548453 241.61343817247422 289.6759818969923
277.94616359689536 247.68728439200186 209.07797945195387
214.14887426677055 257.8278031530975 289.86507421888626
253.14487796802229 273.27251234573185 314.9999509137569
216.14146399305648 261.73110240800366 205.3008725073234
216.67778565615214 261.54194070170644 205.96804640342143
253.1201231482477 273.5603027481058 314.0657448935227
214.80091319969364 258.29062826484807 289.52975572459366
277.5202007040658 248.21325739848166 209.4856185394036
258.41096742211016 242.3633300750607 289.35993379227824
215.74962627077855 253.2495441294738 210.2632120009072
274.7158878633744 274.01667924538276 302.61175906411665
273.878988339364 274.22550762958195 302.09243035641174
216.24234231874627 253.94735888936074 210.55250224761235
258.0838177352195 243.11449115000926 289.0433514357331
277.09306706707247 248.74096995020906 209.89433350492115
215.45447366008878 258.75472567387675 289.19352827188993
253.0954858252475 273.84881850461096 313.1295279115419
217.21890656426515 261.3536084079584 206.63933636276496
217.76463575275596 261.16609015485045 207.3146198516925
253.07095851573547 274.1380429079368 312.1913475086584
216.10952722053972 259.22007499571623 288.85640730283257
276.6647789935267 249.27039757078091 210.30410169757738
257.75620561129807 243.866903439561 288.726229289482
216.73598504083913 254.64681799545866 210.84253162327275
273.04069721982955 274.43433668526046 301.5701204713215
272.20111145070206 274.64316931288994 301.04502644300834
217.23054837186936 255.34783365032453 211.1333021027364
257.4280997450989 244.6204539084667 288.4081359997036
276.2354460914638 249.80163823213556 210.71468735122576
216.76604612033861 259.6866560354594 288.5184081640067
253.0465340824044 274.42795970023343 311.25124990675954
218.3144553628689 260.9789364235398 207.9942304547857
218.86428246143007 260.78702463886293 208.68340629955733
253.0222057208004 274.71855306105334 310.3092800467948
217.4240109094231 260.1544445222457 288.17955068913307
275.81049784766867 250.3416704986436 211.11374258090973
257.0980193048693 245.37134517771656 288.0721165882793
217.72658730742523 256.04883561830775 211.42513862665413
271.36031397464836 274.8520101124537 300.51732807516544
270.5183761412219 275.06086478549594 299.9871894098699
218.24019852815883 256.706940328584 211.72732075368677
256.76799567912906 246.12335008630333 287.73540111924075
275.3844170732284 250.8833846149283 211.5137965077134
218.08371427173157 260.62324282337 287.8400413144754
252.99796694640696 275.00980759547696 309.36548162590805
219.37138090836942 260.5343124426096 209.44092165154373
219.87304116831893 260.2811858750047 210.2146812919982
252.9738115819711 275.30170832243 308.41989713366894
218.7578426487896 261.0859627148859 287.5075028521512
274.9572172547373 251.4267566617587 211.9148332813727
256.45570673093226 246.8743283269107 287.39031643241987
218.75532222931582 257.36561396073085 212.03016624070688
269.67535968814445 275.269739689407 299.45476015674285
268.8313183676006 275.4786415083811 298.9201770452889
219.2857867626305 257.9915477364677 212.32845769535962
256.14300716041754 247.62647551782095 287.04472994915153
274.52891167873963 251.97176339219027 212.3168374631779
219.43335696700532 261.5498126627378 287.1741701092225
252.94973374505534 275.59424066310237 307.4725678873428
220.2938154004253 260.01489093725144 211.10862313752926
220.49339875028843 259.57530875515397 212.23774103092208
252.92572783533342 275.88739042836227 306.52353406557484
220.11023083129382 262.01477414358834 286.8400571233119
274.0995134520454 252.51838219784767 212.71979400681892
255.82990293153537 248.37977801428264 286.6986472779806
219.83329242153502 258.5433058137566 212.6741606956395
267.98629927999144 275.68757701109837 298.38356507963573
267.14034396179534 275.89655285103214 297.8450386757377
220.35310593307605 259.0229421352906 213.0595813087251
255.5163998883829 249.1342223207229 286.3520739824093
273.66903551805655 253.06659107647351 213.12368824022775
220.78843833908252 262.48082894337483 286.5051776905382
252.90178851611617 276.1811437929983 305.5728347336865
252.87791062973415 276.47548712417495 304.6205077861632
221.4679540782639 262.9479591553985 286.16954536474094
273.23749066984544 253.616368601395 213.52850584756663
255.20250375908796 249.8897950890749 286.0050155751538
220.85776076997666 259.47792024982704 213.4578698388156
266.29348920966555 276.10557516894943 297.3047025633751
265.44576706332407 276.3146467701689 296.7626512980747
221.3643912817574 259.93492082593417 213.85799107202195
254.88822020722912 250.6464830544146 285.6574773279662
272.80489156665897 254.16769392189295 213.93423280105836
222.14875312445082 263.41614717813565 285.8331734572575
252.854088387552 276.7704052194534 303.6665889923647
252.83030663782435 277.06586221655425 302.7111012425743
222.8308110376014 263.8853757127903 285.49607503719596
272.3712511096198 254.72054845939087 214.34085234182123
254.57355673092962 251.40427054267064 285.3094569218426
221.87297299797515 260.39394637621785 214.2599083431173
264.59719786875434 276.52373995428593 296.21895589625285
263.7477156093783 276.73252815609845 295.6735235629118
222.38348055585627 260.85499796988944 214.66358420226024
254.25859634370607 252.16304280988365 284.9606592499038
271.9366038039001 255.27501523060133 214.74817170234093
223.51410385819221 264.3556277604144 285.1582629318725
252.80644564228942 277.36159371763114 301.7539366126637
252.7812415769049 277.65484204390805 300.79356599953593
224.19860810760386 264.82688661095085 284.8197497162086
271.5022455200314 255.83700353665353 215.1458286207548
253.94635992164112 252.91883678398335 284.59942852396784
222.8958877585228 261.3180752035152 215.068980553634
262.89641944647644 276.93773044095735 295.12469879511934
262.0341122771335 277.1068281225787 294.55537286331025
223.4101676716654 261.7831762685747 215.47605847453892
253.63251296831763 253.65931239793653 284.22286295881713
271.0668820101773 256.40047693371446 215.54430821843576
224.8843009718257 265.2991355274384 284.48054725825585
252.74093752069766 277.9156798482737 299.8129229861222
252.7006606148235 278.1769409323544 298.83075784274007
225.5711676278027 265.77234563603423 284.1406490368579
270.63052526121004 256.9654169013638 215.94359859696405
253.31828868972852 254.40086937336727 283.8457920876404
223.92629395337033 262.2503012875705 215.8847656619712
261.17102145260253 277.2757894934636 293.98450961124985
260.30720188690157 277.44462808592016 293.4121602168342
224.44428940237606 262.7195819141221 216.29454416522668
253.00415110146346 255.14358410445672 283.46848897654655
270.19318714556033 257.5318053421789 216.34368805638272
226.25948620885654 266.2460072251296 283.7993443228133
252.6604932349083 278.438585769086 297.8469272735643
252.62128789181128 278.70031210752956 296.8596975940927
226.96090459437954 266.7009844152802 283.42862027502116
269.7548795930371 258.09962604991495 216.7445622647771
252.70838872836768 255.89095206171845 283.1016011042719
224.9660898098802 263.19630628419844 216.68523457698333
259.44295176823607 277.61337209343856 292.8382180004121
258.5807613677765 277.78218423151174 292.2612139534481
225.48969770817874 263.6750533429141 217.07745875406246
252.4123685738387 256.6393329230605 282.7339718783882
269.31562474471275 258.66895189214097 217.1460387075868
227.66306333974174 267.15652040405024 283.05683836230105
252.5915303603672 278.95924011063164 295.8514778080514
252.65538620620762 279.187224023502 294.6464863315937
228.35505265317158 267.6021743822176 282.66838732488804
268.87605794765375 259.2450571699726 217.53805219896392
252.1202307586553 257.3854059702945 282.35561979947255
226.01508401480103 264.1558140802621 217.4711794519925
257.74275292048014 277.9524111040333 291.6676134076466
257.1267741675582 278.13577470893034 290.93672277911986
226.54221926853097 264.6385781667471 217.86635960415094
251.82731852868224 258.1322113798539 281.9769778041379
268.43555537446576 259.82255443658767 217.93078704102493
229.02205497390224 268.03902862165035 282.25117621967223
254.08172180144683 279.03306133683606 291.84212805181863
255.16894367760395 278.68732229616444 289.958802011499
229.67765426597708 268.4687961129206 281.81941553845303
267.99412826566044 260.4014273288005 218.32423317425415
251.51718916161303 258.86638511593486 281.6063591077278
227.0710738615898 265.1233338506327 218.26296218043456
256.5342256977353 278.308773989202 290.14990117643947
255.9475271897061 278.47567361260474 289.3650172824237
227.60162425483776 265.6100620705689 218.6609405701651
251.20667113193687 259.60166200032836 281.2352216217276
267.5517877178361 260.98165977047694 218.7183806649793
230.33435815423238 268.8994499187354 281.3868872492575
230.9919537105652 269.33117623680965 280.95323964274763
267.1085431644385 261.56323536987185 219.11321610057144
250.8957734335473 260.33802942579575 280.86356080457716
228.1340965691697 266.0985003695978 219.05985251925378
255.44967373982402 278.5566955926772 288.6262006178437
254.94924901548885 278.63707055164235 287.88120070298527
228.67862706461187 266.5787569706123 219.4435054572236
250.58466791956585 261.0754335041076 280.490976341209
266.6643119831331 262.1461020212208 219.50850774326565
231.6425222951827 269.77209294904645 280.5036101329273
232.29409177673162 270.21384818935894 280.0532629196959
266.2135397224695 262.72804947773153 219.89098006871546
250.28017716725876 261.81214272278913 280.10091646553025
229.22482243240577 267.060917922042 219.8284036915044
254.45123607184388 278.6910277032079 287.12376741059506
253.9502370009936 278.7461307407764 286.3606626030888
229.77265291878103 267.5449672702328 220.21451479039985
249.97533390789863 262.5498908790512 279.71036975415615
265.76185588547526 263.31131622574037 220.27410424171197
232.9466452939792 270.65642901400696 279.602210830993
233.60017781056558 271.0998204655429 279.1504707576954
265.3092695652563 263.8958860058388 220.65786829805486
249.6701635056105 263.28867584412296 279.31933941195166
230.32208883612532 268.03088822702995 220.60180699925047
253.446494755368 278.8024679033662 285.59208790752933
252.9432750194693 278.8605619847215 284.81768105034166
230.87310062081693 268.51866323912355 220.99024927858989
