295.74742620039433 280.2497412050192 391.14314539885856
450.7749615266899 252.55956533118345 279.3766437654461
280.9509476481764 104.42095207360032 41.01212461753251
338.8671391409408 195.07731049426724 86.54024532482501
180.08256237890112 179.58837179038383 459.89310737306164
405.6368412789797 27.6353162787388 253.44110306338467
188.57638656120875 70.04005448760883 452.7585926470986
358.98670268317727 32.09342673856618 115.50560298176369
100.9220421342973 57.28233088342242 173.48931117190622
440.73768904811 -27.088533226295024 341.22096084570677
437.9282631866371 73.61375402331672 139.13525844004445
81.70770505525228 62.308382650650756 175.42546815846163
112.37922151064666 14.391774473134687 367.0113160619107
368.4037859025201 34.46573588827018 106.36955278096761
154.40251068359285 10.734302570478798 200.2987686430268
181.35337294046198 -26.98603894721797 46.256211987902276
465.67338841998946 13.823513397076365 190.42720648739885
298.33878024889657 17.707374932705772 126.8642211143246
265.4547274361065 5.654418913222255 266.9641931788842
168.4700668114141 6.880796699745032 144.4658935361423
411.76851511114074 38.82917315027268 147.3830634340345
295.74742620039433 280.2497412050192 391.14314539885856
450.7749615266899 252.55956533118345 279.3766437654461
280.9509476481764 104.42095207360032 41.01212461753251
338.8671391409408 195.07731049426724 86.54024532482501
180.08256237890112 179.58837179038383 459.89310737306164
405.6368412789797 27.6353162787388 253.44110306338467
188.57638656120875 70.04005448760883 452.7585926470986
420.52110945756175 57.14873677969397 153.01890632814667
174.43620453356436 18.750965463678494 158.54367092991149
263.9587308522759 7.213664396575118 269.04189911907986
315.5161681912392 19.24258904191094 147.0117217615373
444.8288565375072 99.01553730689581 308.84233953587096
452.9721002200251 27.769589541566695 206.905147193959
152.26985186696794 -18.717832754544865 47.39745216788752
167.06092210666927 19.590248325182223 179.08538861923589
364.0744091000887 37.519387864491165 108.61583879753739
112.12010521992899 17.788078086687847 366.1772222412142
92.11128034448481 62.43347521074538 171.32517555184205
431.60125308430594 68.9700015683219 147.18281722425283
448.4497127011693 29.5576206151504 430.26632587352196
440.73768904811 -27.088533226295024 341.22096084570677
64.95542475070116 149.1832039133885 191.4642851758779
295.74742620039433 280.2497412050192 391.14314539885856
450.7749615266899 252.55956533118345 279.3766437654461
280.9509476481764 104.42095207360032 41.01212461753251
338.8671391409408 195.07731049426724 86.54024532482501
180.08256237890112 179.58837179038383 459.89310737306164
405.6368412789797 27.6353162787388 253.44110306338467
188.57638656120875 70.04005448760883 452.7585926470986
68.24614292011982 141.8722105074082 173.05611551996967
425.93317614326133 2.2100866884345827 353.9900629019894
83.95267701307108 125.95942134648966 381.2342941842197
438.5867703665867 58.537950646533986 410.3799168795507
425.6004941956127 66.09764359245641 154.91567083936857
92.97313957015058 65.51426976441846 167.69337017816292
110.74222699660956 24.129179912052226 364.5010513593574
361.81841783317367 41.75463754228637 108.63288467644809
176.79438417693706 25.329175834737374 166.91241060768522
130.64747488511225 -4.199007494950244 50.832398982132595
434.32353730568633 42.37983538158141 215.3712964599417
422.0716957224433 92.78243036165779 325.5334294006847
324.75152620104956 19.815902766907428 173.1591314248619
64.88898530373498 115.57110933912547 152.0976558528242
378.4607446263498 56.06043624016982 221.23414946817385
262.5362806675803 10.298972375535556 271.4603359192357
295.74742620039433 280.2497412050192 391.14314539885856
450.7749615266899 252.55956533118345 279.3766437654461
280.9509476481764 104.42095207360032 41.01212461753251
338.8671391409408 195.07731049426724 86.54024532482501
180.08256237890112 179.58837179038383 459.89310737306164
405.6368412789797 27.6353162787388 253.44110306338467
188.57638656120875 70.04005448760883 452.7585926470986
262.0409529123914 14.775233262679459 273.30881205038037
396.99101690567164 61.49263773196812 215.16975626594163
389.7758159799958 89.75718930582615 349.18625009218636
72.95709404199918 106.8666351136934 144.68074820181283
324.86677776808415 19.46381394716995 195.3106321049088
405.72052575225945 92.6031443638253 337.5006931433739
415.3220173914069 53.688663469887075 214.40473338085135
449.7725773781295 -29.047666341018207 320.4082942305509
118.89772672202723 11.640144972077668 55.15500354128271
182.4427973686385 27.778560807027297 163.25361403390332
358.75058043702154 47.52397071181275 108.83466764229601
107.82891459134287 33.24029165186861 361.7848305750092
94.49249694469914 70.54614367374467 162.23155178226298
69.71377911158038 139.05844971798308 163.38588285900371
422.3135522304874 68.31418053659192 159.2670064586696
429.4596112597082 79.85743425354478 396.87865119673575
98.26610666882645 126.88590323217842 376.0218457347866
247.39240220526082 14.97445548816778 284.7354734522107
401.338133047637 30.522168205532328 364.9780808576447
295.74742620039433 280.2497412050192 391.14314539885856
450.7749615266899 252.55956533118345 279.3766437654461
280.9509476481764 104.42095207360032 41.01212461753251
338.8671391409408 195.07731049426724 86.54024532482501
180.08256237890112 179.58837179038383 459.89310737306164
405.6368412789797 27.6353162787388 253.44110306338467
100.56627757649981 76.92357303790011 141.6532309185817
120.3113849602347 113.00731252913455 375.74843318811554
188.57638656120875 70.04005448760883 452.7585926470986
377.52362186216504 49.88431846092307 371.57411744403703
259.9930355684449 17.420552283521886 276.7685745936402
105.46180055542041 121.82599864939088 374.48376996248413
422.0632759621402 93.32945770757382 389.32899185914283
418.35413754548995 71.36191802988482 164.50566079987965
74.01233562510045 140.47249590576453 162.32445605562535
96.79698925151334 76.88664369053609 155.8167794860265
103.20101902008328 43.91974355732888 358.0751687499503
354.863087412585 54.772770448466474 109.27847935032948
189.74502739527978 31.968180490493054 159.24014813977547
149.49422551253048 80.12253226840116 417.9141894698112
117.01308056033172 25.84251099182242 59.45129027052599
415.98356419203475 -15.34942933182153 301.0110414192868
406.0379366176284 63.60322550252331 211.5335971956112
396.9976095226243 95.65364178278314 343.86632819875877
318.68732041186126 18.555184584153036 209.71184877756932
232.75487139403913 36.66367348387484 151.42920550688018
87.62485190740776 98.11855449574884 138.23260518393232
295.74742620039433 280.2497412050192 391.14314539885856
450.7749615266899 252.55956533118345 279.3766437654461
280.9509476481764 104.42095207360032 41.01212461753251
338.8671391409408 195.07731049426724 86.54024532482501
180.08256237890112 179.58837179038383 459.89310737306164
98.13761716342272 91.63524145066837 140.59393798796017
213.42349659202515 41.95403381639389 150.61366872274743
310.86284279392595 19.761582061638517 225.50326251925338
396.18487726101057 100.64958031743153 344.4315970193755
406.16855635724 70.24137585389995 207.86965539858576
379.9213823192198 1.2604491186846971 290.9065303045816
120.25222421714807 40.83916401420405 67.9386286893223
158.35095258421333 74.84878825452785 394.6964667418797
100.3500904249057 163.3377830784764 80.38956270875244
246.10373193529753 38.65901908649683 73.59402924922807
405.6368412789797 27.6353162787388 253.44110306338467
197.51276486228278 37.48882719822105 154.91275550051486
350.3897702438661 63.192037149412094 109.91157586237098
96.86954537368368 54.319173916638036 353.68473103348686
423.9935970282249 269.7857622657177 66.94535070158135
100.02695429174908 83.09716331482768 150.0876321533162
80.05125050135095 143.9126227472303 160.33931346503473
203.61962310283775 19.29698234180579 352.1460076762432
413.7942181923428 75.14403251508304 170.5326385755597
415.26245854847855 104.21898289628054 380.66931530098043
111.64754519427582 117.03459011210431 371.08402791178776
263.5535747303863 19.730835574467374 273.0746432665025
356.9945855505374 60.81533424964177 373.91320365977276
184.36784071609412 80.72601573533923 453.538563014885
396.6912893534644 218.68082057860144 81.13406396038006
295.74742620039433 280.2497412050192 391.14314539885856
450.7749615266899 252.55956533118345 279.3766437654461
280.9509476481764 104.42095207360032 41.01212461753251
406.54116995201423 235.7518294811343 78.79171930740138
338.8671391409408 195.07731049426724 86.54024532482501
180.08256237890112 179.58837179038383 459.89310737306164
109.81457638898858 155.3340082913925 120.49895943893175
288.90189751553316 71.49740253199752 399.77390586883297
52.61321495850876 232.25111339613503 111.79898841040406
187.72826488036594 95.39864491294279 459.49706327192854
431.2081313511976 151.61626734739542 450.77933192304636
342.4947590193425 64.39290590105027 373.1578612137048
268.1466489179244 23.241590154029062 268.8146560718062
112.88090118975535 114.92211031661594 366.34697046787977
409.60168885383615 110.24184870159279 371.8623513049208
408.8023947680765 79.50627850746986 177.01110403840684
190.69257105289267 35.932112254834635 351.76090475715785
85.95331995492238 149.49542144129663 158.3872530832506
104.34231624844149 86.98116755111721 147.38045523784788
415.30996231816107 252.92513198682082 73.50918050693018
88.89784560828785 62.13577784902055 349.0882742083911
345.94810463923733 72.35562885270352 110.44728565094529
203.61275350822046 43.70758654348636 150.63870812111645
415.85255403875567 62.54014143696173 258.93373859621516
233.20041522427775 45.210399335424164 83.8092234290654
106.08734104186937 101.5879505262892 284.71383641755415
121.12076296281734 159.35706581097162 89.87005869177226
164.83607009063624 69.61339490265519 381.1933720200374
132.6606725790121 55.66021813364943 81.42948200023338
460.86293815766095 161.6904894763168 342.92308663097197
347.63190384419715 17.672836968366198 290.0609449663838
405.4229978371645 78.91790111795395 201.80523731751242
395.97748812878547 109.51602689209028 346.89623290514936
300.43087895555084 23.438085992326286 240.71165559757947
42.4779599821327 245.60870160420617 154.60581464792196
295.74742620039433 280.2497412050192 391.14314539885856
450.7749615266899 252.55956533118345 279.3766437654461
53.570070199374335 231.89544116140968 143.0303157719171
286.0031857118045 30.454911627293882 253.9137088109198
280.9509476481764 104.42095207360032 41.01212461753251
397.2861925050474 120.85445078116751 351.3730697485533
402.8293226310013 88.02401511440792 193.7598107050674
89.15849598081586 137.74168286990505 292.6606991744932
322.0404031211473 31.98523782361073 296.3376590221509
445.2614141411408 150.01157996574244 347.48048529143205
160.00109628531942 69.27786251188832 101.62516256618837
169.06677843318909 73.41536853857862 371.3294581469235
132.3603976107608 152.46928987739346 100.1921761170085
96.93737675201098 119.74874470065555 289.1534901472547
229.45563998995954 53.51470598456625 90.41216525684216
422.659191069944 95.03979222612273 255.3382863801756
203.57220946004762 49.57655216664231 147.63272741549125
343.19142483874475 81.63678982694367 109.96000298995104
80.67854320510202 70.26415610279444 343.91709382929236
411.063420111775 244.85754650021326 78.34252673980558
109.7454636023294 89.92959182538719 146.2657342306149
89.01879103103113 156.84575253181438 158.4142193064253
141.0096434121997 154.08895614960554 444.9211894634898
185.15778067505912 46.95625917443635 355.10022625246233
403.788559600499 84.3417412692486 182.90274790056986
404.78697933456357 117.48409857983714 363.5423731849456
114.35913037181963 112.80268002566608 359.03353009914747
273.4768610663266 27.71988059977543 264.37268746212845
328.82538458210564 69.62661312958272 372.7680493740239
414.0861119425431 155.66192713780578 433.10400421309157
187.01051998183223 125.36390444951815 457.3607605704042
54.982244907981354 229.84439210013022 124.8763540230977
338.8671391409408 195.07731049426724 86.54024532482501
180.08256237890112 179.58837179038383 459.89310737306164
301.52530080010615 81.9155657478779 389.4378678969582
107.17975266973825 167.5993486769398 135.82044563381552
295.74742620039433 280.2497412050192 391.14314539885856
450.7749615266899 252.55956533118345 279.3766437654461
100.86366866122614 171.9441826587937 146.27223974482416
308.6253862415303 84.00022613281723 379.31558345195805
186.2278519172004 167.3098062176593 446.4869802656982
347.39774562842706 213.54256260678534 78.6811458691738
461.86111216917016 303.7276306361286 404.14629927250076
447.30317793772963 187.04658416821167 155.6172918121858
58.91700980538009 225.77779667362375 136.06571817358451
186.67129428876453 147.53908354900682 448.96575432942274
406.6399206279961 159.1874155003953 417.900067281415
318.6957718326757 75.79247467930475 372.6314301892989
278.28826762352463 32.67346024743764 260.58798154353184
116.27142152652411 111.7648474932303 350.08003103978035
280.9509476481764 104.42095207360032 41.01212461753251
402.9799803426723 125.37845465768635 358.10894619610633
400.31314157763666 89.6446425632004 184.11800701067182
182.9136143784712 57.117599022552184 355.25861220043714
145.20817109784497 147.94289219489542 433.2870294016869
92.27631674077405 165.07088866608277 157.27747719758267
115.93742700309055 94.27752248999764 146.10466011717878
411.2212180141237 245.44492562999847 80.78979340661877
72.40616317649268 77.27462433507465 338.0760572979286
339.77754032178666 91.70122745986507 110.26768748636363
203.6814334072448 56.7429487304951 143.8900959103115
426.15679259331677 118.95267839876622 247.82904349158602
163.11355212870745 245.8778581023194 125.73688543101728
367.7050158094161 298.0187162492458 59.44527985695983
226.0909508193929 62.8537806080905 98.09460272638178
88.73085520986555 127.96167492085614 293.9803370215194
133.85887478954197 145.45223297122288 108.25749545843007
173.7356751211586 84.51062306002478 365.51961737691613
414.95075643679314 149.20526670337497 209.5311754973412
182.13303691416226 75.53174154832637 117.50266480990388
431.26469300904097 148.2005414020987 352.2608877116782
304.40199363271216 43.1938958072543 307.8215911452626
295.74742620039433 280.2497412050192 391.14314539885856
450.7749615266899 252.55956533118345 279.3766437654461
280.9342278713936 54.27447216649537 320.62621778931447
409.69311592488344 144.99147560904316 354.0226064013579
198.2439935959183 75.39231273391634 128.59755615232208
425.1249259147843 149.0541527535786 228.6469189519104
103.39188159620076 209.06250186846032 435.81372089492254
174.570128760627 116.90656505085842 371.2641897126739
136.24826799199977 137.47088648138916 118.12124960662626
83.74130435691876 126.78864048776936 297.5602808874965
222.69384934718985 72.58608717756412 106.61653874050187
88.49407549689953 212.7812927371907 423.6526206656755
364.40652249401717 284.7785220933949 71.1956825987047
141.50420148091973 253.95553974089265 131.1533030096955
426.3748588070844 133.61020403275856 242.21266865244732
204.04067582346943 64.87260353107793 139.71329855659195
333.8819097816461 103.42380836918508 114.03500014101948
65.338135021374 85.3125110117856 329.1279965670494
410.76527449706595 247.00300756960976 85.51607833236292
122.15287134043704 99.58526189088712 146.8309353916726
93.81826066269235 171.5465284847651 154.91169216449052
148.51440617535135 151.11389922242694 425.1736650188934
186.7816204622341 62.2914167245349 350.8036576400361
397.41946037820605 95.2952282217009 184.62637727992026
401.6629603562625 132.64268849944037 356.86824311798426
256.7704783063611 129.77054019718838 59.53339911058252
118.43763513245038 114.03841002012426 341.6663534157911
433.94072440773476 231.3436903958959 444.6928231051495
278.5718895694794 36.87230956225789 259.9959927842009
313.2682587866673 81.84482358303444 370.68877249023615
281.3000077459739 91.4033408353484 420.5817832124373
280.91812137794756 50.83042727837239 339.7810074436225
398.82485575973857 162.2591484414278 402.1007334440491
186.63893703014674 159.8897380293602 438.73103404219864
63.9963989888483 220.34674665524136 141.1950114215071
420.1683963653129 191.62656927529994 150.46653769959224
450.8152786691011 283.06239794194937 413.8454967176665
151.43445037455356 115.91002345435913 336.0312557661627
300.25433202483833 129.74724965666843 103.45412468013915
110.71392660754594 284.8680487188574 152.18904063266226
351.1583522868101 239.0989647011252 76.01460778202505
295.74742620039433 280.2497412050192 391.14314539885856
348.5746994148117 260.1300907072449 79.61482701717203
115.34149777444912 266.215925265156 146.49599871832547
314.9248767727504 128.71574326787706 117.72536030663936
140.526915770908 270.91938247818103 434.19822483857524
133.5959268734648 120.21415512347578 327.79707400527366
437.4380456769411 267.6927922789659 415.38865892782087
400.0901491095168 192.58992441372564 151.4088379202643
450.7749615266899 252.55956533118345 279.3766437654461
70.69658436125671 213.9706385544586 147.06426449604243
186.85425529237565 162.25199024128196 428.9092023118078
391.78034229872014 164.56972238725297 386.5210333517759
274.2427068797731 56.33807326931027 329.617787411383
269.5438110168888 105.80289342246283 407.8299751786305
384.40824215271203 193.7074356120684 137.08085591388019
309.66116456357435 86.6131270906713 367.0505953978757
278.1783448227721 42.00215836868571 259.0916987299291
434.0444773395441 249.719130027019 429.6647710822056
121.06554049345542 117.07900782529111 332.6969990194516
240.48578987040196 149.39367449823408 75.84914180721536
399.7385380483579 140.716858771725 355.5442739030969
394.1492736265572 101.68641109386503 185.22163007312002
191.99969712428904 68.05038627604914 346.91432112395705
153.1193472316738 154.97699004493342 416.2890644662316
94.0946893649029 178.07074278051294 154.15219416017607
128.90718409976304 105.34683708626274 147.62165241495632
409.26341559430045 249.69137712750296 92.58221230841062
59.47220187357525 95.45877197541202 316.8868420631581
328.29295007205 114.96921331072122 117.98292507009634
204.87281187854225 73.38211408007037 135.9084152190453
427.3287253673449 146.62374326336843 239.9359077919668
128.0581542304634 256.31516592638616 137.38477854865818
356.68413234842774 276.73377698426987 75.63606167162979
100.95783406976926 207.5597042463327 424.7644956324525
218.48772541574704 82.08438929394086 116.21195660423471
301.3416788521534 123.66199277990786 145.34304274578227
74.11671044772174 124.53585662788494 299.89018019684625
139.2281372921374 129.35887154900723 129.35424994662577
171.37226853781468 141.57930631011718 381.91718494951306
204.71333765953156 187.82694887497442 104.23663196431175
295.74742620039433 280.2497412050192 391.14314539885856
219.53057052930623 175.63417786520364 98.33444028857359
166.0784992567442 156.56168157020286 393.87554297944143
142.60194938562574 121.66800658446229 142.4658479410975
61.03957571254076 122.38126320014561 298.51415614894614
315.64634233168795 130.86255328091048 133.18830147803246
211.7503391265436 90.35861596867201 127.92076323565377
107.01594201103177 203.38316559109094 418.2687749983272
348.61028184082653 271.4018801498739 81.24409463571747
118.34054977623927 257.0577073420523 142.94131791050106
428.90136542263275 154.80202736016577 242.83610323797328
207.02203859601704 80.49286047132408 135.35989028156774
323.8614483026081 125.49874128940522 122.12861910524946
275.96883319789674 164.7007334046641 438.23959889145453
57.16812672927779 107.5579653527369 307.10965498845275
406.3649617802811 253.39952540557036 101.17950467187151
135.97244958691954 111.26424347156015 148.60809789922988
94.2945868021143 185.50713798169687 154.98097213911655
158.65749561714364 157.94351682743627 408.6122216299455
197.81186727009046 72.95054265553337 342.1043035163786
390.551677762118 108.69728262672695 185.8704879440794
396.2028421418069 147.54082557304673 354.5461066431089
230.73350628824826 162.7095298940368 87.97609952041256
138.21573803228867 278.90825250965975 432.1981508419875
124.06252713483373 121.52047282220613 324.91115551000877
430.9937722483431 259.18578180722056 417.9051886718387
277.61679189395636 47.84425734899534 258.18475266983427
430.41162314443056 252.15734657747524 207.34596903730375
305.40333006053777 92.25422255535518 362.7107383387327
388.97202857894735 193.4488464324383 150.76935123621374
262.3305506454844 113.35884598504308 400.7814002589668
55.854201944060364 285.77252597258723 354.9184117374719
265.533597404295 61.2043285245285 329.2245572800299
450.7749615266899 252.55956533118345 279.3766437654461
386.54794239828925 165.64830357911777 372.01545984064416
182.69335519229034 165.16934549377092 415.0027142274349
78.79469350646305 207.88578684344787 153.4048354315349
421.3235093509594 274.6572802477217 128.6496881286749
295.74742620039433 280.2497412050192 391.14314539885856
405.3566302007016 265.74725217366625 122.46951407223312
88.38276716409854 204.13597989518604 159.5630090085453
172.57223268694855 167.55596503862333 398.9339406065501
384.74304216002633 164.6626355227353 360.13506528129693
448.041325747666 231.89102176299977 274.0443638238279
323.0371516265464 169.95334689993263 115.04310934753529
253.40520020641603 69.79767976136853 328.52100050062944
85.66260660974706 284.953537633489 371.64479287683406
254.3982369078547 119.21367292641035 392.9665164895379
389.1288547256291 191.1845111389567 155.7082360745768
300.5438092084985 98.62113613495474 357.88187203239704
420.5279486791455 265.4695792139212 232.12684732121693
276.9042235747259 54.36227158168277 257.3080761653091
426.6382196373395 260.24245101803393 411.39627918336015
125.65588446275058 125.9375418348649 319.63896608011135
132.84954428022718 279.3608249438485 424.37818890122986
227.0361085799619 169.62052230714582 95.3790666295376
391.6643758826593 154.40680238655509 353.95970837748916
386.749735053718 115.92711303223322 185.753109939959
204.02814792742547 78.22708163093073 336.96425232863163
161.96230545311107 163.31684030604325 401.98692900506546
94.80167376771867 193.57328450644488 156.32839990581687
142.6513362432111 115.80881524528542 150.62929423904274
401.9375596368105 257.79186569442686 109.6044142142805
53.08725341659858 117.13127546927069 297.94799829224235
283.9663597120361 161.81765547637102 408.4595501114266
322.8900636395948 132.65362644321814 126.48811673769046
207.62177324049009 87.72022958616117 136.7750877419433
426.9579197921693 163.03075246714732 249.20682892919714
116.40272378162035 255.01467299494692 146.43906368805858
342.66480225570723 272.21530091363655 86.19945397357141
117.0504721034969 197.98659403606126 408.3936350069641
299.65311691608423 152.0624924706161 354.1562792735486
403.3304019834135 292.2669112287225 281.6832979625699
396.05236037196823 194.84822357255072 194.4282073562819
295.74742620039433 280.2497412050192 391.14314539885856
388.0564778112993 188.0026519393512 176.7600459865725
403.38826170846073 279.89930315805077 266.3762987860561
214.18414567535166 88.78207307873058 316.46831481136087
294.4454832338682 162.34159716299163 367.64857782155667
129.23435777112869 192.9804149872169 397.87844205038726
335.46010460760186 274.4228154424916 93.65276947925466
114.4132854436097 252.23184523513 150.83449609724056
424.410925542625 172.67719887700122 256.0757572464665
207.77057034949814 94.42976180588109 139.164098535735
323.70030031872346 139.17446337894654 128.75972244772086
289.30280944430007 164.00607644678078 386.87697467880395
47.12240256291106 121.59505705057114 291.41410301060125
397.53465846348877 260.998191812436 118.12528549549803
149.21369579675329 118.64316664341717 153.34159756626565
97.13529990558791 199.27799301628994 159.31275666705235
163.22899072913154 168.0099895130659 396.8041746809341
210.44117868660294 83.9985598149634 331.55811836104846
382.7089722319884 123.56473700161796 185.72274807376672
387.05079336087374 160.3649091310363 351.18540307316204
229.08068739570228 170.08289128807064 97.73773384398842
128.48514317387904 278.3686295152175 414.38292935876615
127.41749517366885 131.1136045433947 313.8427140234161
420.5046232298849 260.9277497869871 403.9343659941545
276.05941795329073 61.49726272575084 256.4683765402998
227.267160055064 271.67348697644263 118.57469081759811
410.86972277777204 271.87123727919766 249.68324416759177
295.5296872696037 105.26283456536837 352.564559008836
387.8489362121425 188.12387678690666 161.88678415407853
246.44656334652245 125.48704262035704 383.8422521201003
106.45536682093986 282.62821948766884 384.3154218561728
241.32568538136715 80.53051178235204 326.9305867716123
332.3182930040649 162.32105210479392 119.89949441023036
435.36428646979584 211.74654299064557 269.6362499651751
295.74742620039433 280.2497412050192 391.14314539885856
419.1595132495248 200.56595396023215 267.91212081697836
332.09728664910733 155.94160658507226 127.60887038831336
231.48007293090555 92.4170345455059 324.1717601209049
118.39686497786712 279.9787155708648 392.3438462264265
234.14252187043212 147.97019371029856 365.21940727299994
238.6758279840453 132.36285855047078 371.09721960849157
384.90937170241114 184.81660620297237 167.61569440233495
292.03899848866956 110.83692256938131 345.89465357867465
403.73899611856575 273.0655317897519 259.08518748293244
252.23145888485328 266.19268813532415 119.22908925523188
275.1139980406329 69.11740479611498 255.56259744435584
412.95746896571944 261.5585687335919 395.97152485486237
129.29910420855532 137.56648140365334 308.07981232346833
125.25484956122091 277.62189108040167 404.51735058556557
232.34510384757203 171.0045332278263 101.45277492379216
383.0463833176797 166.05039494928917 347.8973739959738
378.4470958385481 131.43102619711215 185.71575259992846
216.35646197884955 91.6017749980127 325.7947365230345
163.03300895388162 173.40459931838714 392.2287051948083
101.15001224491023 204.38839311068142 162.0629425219036
156.10757455645123 121.67647931655004 156.26629768578871
393.960316498687 260.8106169548638 124.2468572605826
40.07037047844563 128.07918577995878 284.2041913125428
291.9642886759553 168.80735617740677 374.56896133395844
324.8255003739467 146.09134681444868 131.40547830721815
207.8792736321573 101.92623834077467 141.9486215179719
420.322583854827 183.15205643642173 262.3958111431768
112.54576544715805 248.7694085166908 156.140058816645
327.32187172892657 278.23983647176686 104.81286392657083
142.39144999599415 189.34596793113292 388.15130729116055
361.43198577489005 157.92638319301884 323.46453949432623
368.9037928669066 172.76109169772735 333.56352777692246
155.75155185077557 188.0951824208864 380.44089155006725
147.2533935151682 195.2485203163204 314.00429139610327
295.74742620039433 280.2497412050192 391.14314539885856
317.3135622660593 279.57012434718416 115.88632199140638
160.52064211628988 166.8579158470733 277.1470189240514
111.3872287409298 244.9184318800248 162.09195824702925
412.7729987412236 193.95599896112154 266.40841872175474
207.53025487724747 110.10616592318934 145.85519003607644
326.8405242968487 151.05118856655383 134.69914028592189
292.0139878907612 174.9489639273601 371.8203478627553
32.67048036330108 139.02789957045127 277.03659752605444
389.6487255383669 260.4352017165798 131.40954871646656
162.72976094018694 125.41748622532376 158.81017985476643
105.60314034118689 210.15732000231614 165.22886074111764
163.40363701605153 179.53464414965012 386.83329629751256
222.00429891887907 97.99762276198301 322.6639055243798
373.7788160563813 138.46047928277918 185.22356931563215
378.6517787382406 172.1154455257683 344.07657265281665
236.87554183126613 172.58088109663356 106.64318143451274
126.03474483141487 277.2462942154503 398.5703192742163
131.9468743689294 144.43262788397172 302.2492579945443
404.3753803101011 262.4551634946162 388.50916659665575
274.20470479752237 76.58840908037206 253.7095541871776
267.58835356712837 263.053907488334 118.39596077724386
400.02244796687364 269.8953255498908 260.16279789296163
289.18431218629473 117.22582548219955 339.75310439432394
380.0447273851278 182.56112279773777 168.99281451726463
233.3945008492823 137.1149208579352 359.56776848694585
232.65416603589208 137.91155977785726 351.1843605023153
373.8021811802425 179.44113642477862 170.79011939828197
286.0408521797702 123.81776289131489 333.3651332725539
395.324589942466 264.89330083480235 262.50535481197306
279.4439390837876 260.8802074228693 119.34514429041865
273.20581156091833 84.54323961517176 251.844606570181
395.4327691389236 263.3518557704964 380.5835806693715
135.23252901468538 152.69174891886777 296.6346626100051
129.2245046121302 278.0626289915519 395.11867007237515
242.42618752478185 174.96273149600043 113.09397005947486
374.01662006511776 178.51314364240986 339.95380701916946
368.8678442715627 145.7682394312844 184.7306863683489
226.18919446130883 104.67044933778503 319.8973837272007
165.41381731745682 185.29798580660793 381.71984039802663
109.94114207869144 217.3761934445544 168.96166687105134
169.61167034670945 129.31467626923188 161.52485001298066
384.77969371445266 259.96690212866764 139.53644376537417
29.76564599971403 154.97630263273288 270.8981186958099
292.7203464987086 184.43303366624568 367.02557518825444
327.88005721307957 155.11276875469096 139.0765326786625
207.0990068268743 118.77974761347002 150.0124062856273
146.641520908504 191.32763846877626 323.8702010605881
295.74742620039433 280.2497412050192 391.14314539885856
405.2383027648875 198.83186758448534 268.5436081120511
112.95214097684585 241.55359124878433 167.61781034772844
153.35176163311496 171.16911630165922 286.1175502673198
305.52719672303994 276.17445672575354 125.3675488391862
292.1252381109091 264.67123466622917 130.99680750236624
147.43156825809848 172.57147890730448 285.60233214760484
115.81602082714821 237.3889383742149 174.0680280658267
396.6003175196014 205.39299539211925 270.98533095039494
317.94452368672853 276.33989865934836 385.83710531604294
151.80928594649995 194.10714618029624 329.077723831178
206.00537266315786 127.74356785395807 155.29256686439385
328.8779895162976 160.10866475521522 144.30924798987772
294.47876671650306 195.63919431965508 360.1690348975238
373.5849786515305 293.3646795570654 223.71258448748537
35.45675695704082 177.18769419808575 267.5448250495852
379.5509872579826 259.47892737670196 148.41176771558128
176.36984399335864 133.00182130023884 164.44628673349825
115.13527084912081 224.46684101243181 172.34849097406135
168.28760677315063 190.79732267664514 376.62491556478795
229.55553662582898 112.01304656872337 316.59068588107743
363.7485254808064 153.31099407352013 184.24207740181467
370.00215278514764 185.18896601412442 336.34224828346925
248.42432270157724 178.1748250361503 120.1244825627471
133.43768940943767 279.0695231245102 390.9866009145511
137.8715901246102 161.8846395700169 291.39684992215524
386.2725759916387 264.26682893888625 372.36381200984175
272.1173358814674 92.96164746421177 250.06445544887706
283.827541705407 260.58165470243097 122.36335001942057
390.8962520957524 258.819971765684 266.36942634278023
282.1389291720082 130.06202250698632 326.2234681288515
297.9519842161849 160.19784885282192 304.74492615296793
366.26025847184235 175.77666672531052 173.03744993331676
232.71543338437868 137.51203277562752 339.22303533815494
295.1136341942919 222.4218561263517 344.6363192575169
333.5668327707581 282.3555167469229 218.90541986123077
235.0738796186444 132.28692873328168 318.33493739481526
357.36072597361533 172.30225030305675 176.20892792519788
283.8614401006091 148.9185748784192 307.62938594117185
279.2770842453507 135.6438996075512 318.506852894476
388.7398208098465 253.2382076313292 271.5641277706071
285.10278831325206 258.9980047343147 126.51127261320322
270.8493890681116 102.1509313467165 249.1226994030505
377.02241839630784 265.1940876337497 363.94609064780644
141.18409738495086 170.62409319687384 286.75359823911805
138.6446454358856 280.2823613246323 386.1622291674718
253.9520302530123 182.07248159780906 126.50552545426783
365.77708905297504 192.24108124356079 332.5816741126692
358.38614077792755 160.8533905851769 183.7182631950503
232.5656867559371 119.3347123834344 313.046725268051
171.5307616615879 196.79870670674742 371.1485181038903
119.20228800916534 228.31213730577417 176.84161014161307
182.83264727386435 137.30949232366436 167.49172107946876
374.0748101435903 259.01116472569436 157.72052159621154
55.51662972396273 207.28695112140093 269.4946604602074
352.9557510479442 286.3821542158848 221.51273068207303
297.37647802415836 206.47400987953512 352.2875409266826
329.49798523987374 165.84044111497897 150.1979159003487
204.04228823288665 136.82323843799477 161.41124105162993
161.34023764275364 199.74819874656822 338.7430629480401
339.6897282461541 271.789002071898 370.56187055671865
290.9790363092635 128.73406799310703 233.47579461084317
387.64645304688776 215.71595523089394 273.9059997308468
380.00140900973764 234.73712908600965 277.74192317923973
275.25779286828504 125.27892835986201 243.05734325348809
351.81293890570475 268.59978783434286 352.92802294896984
174.20122927567678 207.82867315418005 351.98568702874036
199.75186407701247 146.13582466302537 169.34149933323135
328.08988530305265 171.0409240479305 156.45323164100313
301.4185791061117 214.87121544066116 344.8118470463912
342.1752947164335 279.5638924778627 221.0376150883952
78.28538846202744 228.3551858962087 274.776548653802
368.3168474115005 258.61322212490154 166.8405658916117
188.21947005934632 142.44454323286345 171.00077623769312
123.43635851128337 231.26240624208955 181.55537216935278
175.29824438043826 203.2160301146305 365.8285798765975
235.2873833802125 126.68814861270464 309.19618217397334
352.03164995571484 166.02995584006004 182.64195492320823
361.36230181255087 199.57770479577974 328.6728542912902
257.56455806192287 186.3233964229847 130.27701720161275
144.70000695051306 281.65912771896325 380.69774961279575
143.44655869789727 177.4812306473153 283.2652968956915
367.90618473587057 266.1006786541123 355.39347708763904
269.44181462431635 111.59699070277497 248.25972689861067
284.67659045798337 256.2785408266613 129.21778007388764
383.4050070636022 249.30796418334597 275.8122552727908
275.63438389315854 141.3679224944923 311.033561004054
223.84584695834604 225.0224523080354 336.4218559320222
271.33295751604413 145.64302756576544 304.7258993494111
376.7344241419014 244.7994793271639 279.25393439201116
284.14600573593907 252.7983298415437 132.73100334705734
267.2768485173371 121.16703437565262 247.87506665441833
359.6085904835532 266.87510003663954 346.7965875847465
146.08704652237375 185.12689132461463 279.42692374485483
151.43521518307458 282.9677281258458 374.613449761598
261.7454693010891 191.56340150975726 135.033512244346
356.783337839771 207.06917060006344 324.6060275027357
346.04115492593064 171.15640346075332 182.56300364057472
237.81235309239986 133.51617629276672 305.07553034160793
179.23187669110942 209.8517687720891 360.39268384863885
127.95766959351054 234.34629281972215 186.68385610076024
192.05750211455344 148.1091185585589 175.01418802910953
361.91392200568663 258.4764264013963 173.55324207872698
95.8985155515928 243.85263507162492 273.5479982976057
341.17542655320904 274.2663825106646 221.98637067355128
183.63993958814254 154.2207874108598 249.2276302181573
228.0915465027128 238.18156963129968 351.89930725708035
306.6475383692049 217.893616974436 339.61396625502874
327.5402320417017 175.61325807048036 165.02507563015422
329.5894559716694 181.4374295827346 176.01020104513114
314.1544173029116 222.26292570575404 332.4429603321624
219.6390873673184 231.7496422843949 344.4917057745161
191.1623414453373 163.30052837963933 223.6345060937632
340.21977882506496 267.54032128477536 220.08778342329964
106.74910051230535 252.81644666849652 268.91656622913666
355.14800284735014 258.3174967372736 180.47927595190265
195.5050085816027 153.80673274982917 179.2386427205968
132.7542257011106 237.5319295410488 192.1997015580453
183.68330743727205 215.95659348500678 355.81657946018237
240.41706019943626 139.92971716896537 300.3662817293544
340.06834257438584 176.291459314663 183.2635465873231
352.0314505875446 214.07962797112103 320.1185700848668
265.9035142838371 197.5988141233514 140.4586875820004
158.7950112006901 283.1358492637575 367.4931860968648
149.80927730466985 193.39580688781123 275.7158879128299
354.6274647170005 267.1219360925955 338.522119703166
264.3592651372074 129.33071666949652 248.12364594027525
283.5140662308419 248.54825228648926 137.18168002592657
370.12549472900093 244.0624923476375 282.5850580709197
264.74181557709755 149.70319401833518 298.5155578148691
127.89301615695375 288.9275725378319 281.633253719191
129.08408435163807 274.026670764436 268.3517579800374
252.05958526964707 153.74572515066706 292.3590916745847
257.7865818842844 149.97681362750393 239.3790251913176
361.7946527085793 243.54197534155404 286.6088069337354
282.77625469843514 243.62153913105348 142.62221367460816
260.85067130287604 137.7088444923304 248.02548704638912
349.38116507112926 267.3317797237788 329.7884979452008
153.92603179428303 202.08171508200084 271.83815761126164
166.54839805123132 283.31078218672195 360.05561443781517
268.44324173060005 204.43171998265512 145.85811269066116
347.396010648821 221.48148736037868 315.56988346735415
334.62051497528256 181.56400863467988 184.626061674677
242.1591619241962 146.04953443601622 294.8846729545731
188.27207618364326 222.28893563082056 351.1133391326157
137.81765800507438 240.44528542331557 198.2114828476066
199.37595722542565 159.60420482871544 183.60482837161183
348.021255752258 257.94499379284105 187.45054360860695
117.59155550527986 259.6855843952107 265.9861581419243
339.588195308962 262.3167695712228 213.79902900086444
198.1332446497059 169.86531621449737 207.7042417929467
212.9281358140399 233.8039338099018 342.0792259712462
323.684701649746 228.88246140108768 323.4963078466828
330.640391141576 236.17694670547277 313.122576820582
204.4061044393677 236.5375157475358 340.1416220603948
150.4796500058671 237.2139482971276 213.0892094396774
203.02097108457005 173.39102774396488 201.07044939049092
336.1081358607683 255.75089642365876 205.86518657298905
127.81570797505114 265.3783534922543 262.45266603494974
340.30445098458256 256.37170002982634 193.59916224745322
203.26862103256144 165.20354277999266 188.28202339063205
143.11647771678082 243.47705802899543 204.5128983137689
192.29939350109584 228.66989582971686 346.16363119870255
242.73866555697452 152.41875086258517 289.64076658544644
329.7037054604269 186.49471341383716 186.91306814726903
342.4360777875128 228.93127426884755 310.95020762001536
271.2977157528838 213.13780753000094 150.66502157842615
174.59378955885586 283.4869166465694 352.4052978032197
158.33534090498415 211.0099374318027 267.88772908058274
343.72158580684123 267.3899195065896 321.09861966605126
257.16199031898816 146.54090824569403 249.11139193746828
281.8537055580164 238.19668517610182 149.0939705635762
351.89560039728144 243.63521990166123 291.1267225789384
340.05172167543185 245.96499875939435 296.02429550268073
280.3423081792637 232.58085313384396 156.99119947173944
253.78393935405526 154.25340785509158 251.23974716128993
337.1938397835911 266.73511505094893 314.3644584852009
163.08275270177998 220.211308065482 263.97933190316127
182.87835775892447 283.65032036784044 344.67075731339
273.88333436981674 221.45999506617554 155.8517066433186
337.4321147787916 236.3993709498748 306.3325547151619
324.5167423492163 191.7474649324857 189.3389701466673
242.97405799494462 158.33482230101484 284.320025279529
196.3370980747358 235.18999411573418 341.0851631390776
148.56810984359296 246.66188481619787 210.99483399866224
207.09757971326528 171.055212587472 192.6367118001279
334.05188082113807 253.27662358657628 196.40669212008652
135.32632722397162 267.2441759617129 257.9989313301472
181.36433629222475 234.28999160201195 263.7698938812338
143.90159053978076 268.734297395513 252.75695942418562
327.92289879037395 249.99940404320512 197.75310021563556
211.28336937393908 176.72741550910723 196.35851529362228
153.57577445202662 250.46081226291466 216.96043984611447
199.1881667797468 241.1675317449464 336.1162767731832
243.45231694819935 164.37180067278254 278.8182079764223
319.0834018163191 197.2956418009425 191.85169115637592
332.5876463661987 242.7138727147445 302.2261835740682
275.42126801116206 224.97385957600696 161.97166777459827
191.43604831112694 283.74596929977463 337.2015467471047
168.0235595992198 229.5365183265398 259.96464595141197
330.03880692881404 264.90430924821 307.31555778707985
250.3009610629878 162.695053725698 254.02399988989293
247.27321417796895 172.3624418961385 261.06584534367715
322.59159036480526 260.9853691489355 299.2864138928651
173.35930005789885 239.19031800487485 255.41280480596856
200.5713525778157 283.531284582959 331.4549034698702
276.4081044187647 227.5436318394763 168.52283666472496
327.32769763309363 248.06016997733445 298.159037306489
313.5971089478884 203.24719370207197 194.30652867667604
244.19596962187669 170.74125672130282 274.02709453783916
202.34335188133252 246.98979232556852 330.67127890468714
159.05615275155648 254.25828201075697 223.07316138047528
215.53337953483546 182.54851576422706 200.2670944766808
321.0928211504514 246.38339855036543 199.31589053299126
153.88585894611828 269.2679836595482 246.8113070650764
166.6162029675976 266.38286312148085 239.72993149728973
313.62863285902483 242.52147562497677 201.15861654355427
219.93929723689448 188.57040265657398 204.34992617578442
165.10890659338565 258.10916962522055 228.58534859776523
206.25232996516223 252.04856255582092 325.23491142813884
244.80224831576274 177.34082272745798 269.60518892304896
307.94831461329164 209.40213199689424 196.8000203208054
321.89636645679826 252.4407687164303 293.8444805587405
277.3782253562035 230.05282265519216 175.6956593948109
209.18137766280267 279.68767818158557 323.6322720313676
177.07061533216884 246.56258718668292 250.08570872943622
180.48484200498007 257.59519213445896 242.6505208179477
214.95550347963442 269.60985412247044 317.13510843055326
278.1973414086978 231.66401939699406 183.6278264768467
316.4604263296475 256.42407786428015 289.32546308690945
302.3751198682306 215.69572272031354 199.52081566120657
245.86703831058176 183.87784321573073 265.4790371390419
210.81698285098034 256.2749742638585 319.66280532099586
171.80246348494748 261.4327528494835 232.69781846755814
224.423400094371 194.49365899119576 208.70828472805883
305.58833751073234 238.46025884054137 203.32639485332035
296.61602927256814 233.95856117045298 206.01505190812685
228.82095103315135 200.40727582478036 213.366008499896
178.61636434842632 264.52176186048183 235.71058806192252
215.66950606187183 260.2124557101713 313.91348448215683
246.6520220412107 190.62419716261002 261.38017825476186
296.34649659597784 221.4909873645523 202.42734597383756
310.56913207065327 260.1207919819553 284.9990317161465
278.59107938001677 232.78553073690685 192.2842974219246
279.68557116523334 233.2486687012493 201.96071776422332
304.37283561084945 263.73218093727735 281.0628694746195
290.3359583290367 226.2099916997384 205.93260540938084
247.50072176080934 197.40961723179865 257.1335363911308
220.45572643110563 263.55779429319347 307.78808751304535
185.15947704001164 267.93829096293086 238.20025663684055
233.29935051354522 206.45331988480126 218.14553453660616
237.79331359185778 212.55847160134525 223.27257922591428
192.05215248831604 271.50938018803527 240.76570216017436
225.43091390943596 267.04261975191497 301.40284929443726
248.52683155904546 204.35390924919375 252.8995387913132
285.2010623633773 230.13153606835544 210.12403146255417
297.9157400118266 267.51071131062133 277.0031103168986
291.1733391483507 271.2440782886158 272.80606652576586
280.15984043768646 234.00388767771457 214.54118814200316
249.38361981214115 211.40892450627686 248.74285210304444
230.37055418875184 270.84938689952895 294.68391759440703
199.29214303573644 274.9807210465442 242.9096316200726
242.5422200419981 218.20992492645044 228.78841417110422
247.86846242738005 224.0364937720556 234.33708884756817
206.8104117043328 278.55959148772587 245.1448598619667
235.3602534501136 274.64279735269974 287.6726299029314
250.0426495011043 218.5310448263768 244.8033307771238
275.3629062852021 238.00691430287398 219.26887812491574
284.0581639225718 274.526477999505 268.3298508797718
276.6216468974638 277.30348075157167 263.20004423404475
270.6152492367561 241.6647754059483 224.42425455412985
251.6462777847263 225.21725311101284 243.41829933225725
240.52141243322927 278.0258286551464 280.25619154115844
214.53188113382808 282.36006730277785 247.28021703839167
222.5819409949292 285.44473315649503 248.9679723642208
244.926937114375 281.3579130835534 272.53828554988604
253.3564381626508 231.89244290763872 242.19882670554486
265.5751490250963 245.14525128547305 229.58425537147056
268.77406069252396 279.63444891007657 257.90098847459535
259.55828763745126 280.9508907978091 253.06658771906535
260.2702562608013 247.58612016034508 235.1345892974933
254.47133512969788 238.35516283358797 241.1760221185594
248.23441380537164 284.2611655924331 264.3076435160987
231.1393660798658 288.15392667848704 249.34951698427193
240.76368816625052 290.33595610751524 249.0475263121355
248.26662888089447 285.7548926205941 256.59566966576443
254.71804104731072 244.24902932194607 240.98406431175292
254.68672970289253 249.86480587395502 241.16731709839485
249.90312445893568 287.2745994351968 250.45422903034697
249.96339289315236 293.4470473753439 250.20566152948626
250 300 250
250 350 250
250 400 250
250 450 250
250 500 250
