193.1469114361781 149.09633243882055 114.97957726891227
297.35656653182906 149.92071016852398 357.8328268962744
235.12628140983918 145.9840878041881 312.5449227837342
217.6161095324317 139.00849824561666 232.64499465448483
369.8057918476054 260.4425087535314 263.10945184776597
212.43313110634224 141.89893713329252 229.7792307166631
236.46376839172854 146.60373094008415 312.4533325230642
296.892381854319 151.624775068536 356.68563057228243
194.5290671426415 150.70323740154492 115.96023407016278
190.90819700928205 124.65616044377732 171.8345563145719
190.37207244933313 127.74875765469855 220.21381764416603
262.7782178459598 128.01604749430294 311.8479490287484
304.0356481176426 269.75065450664863 399.73383589306417
318.07537861527777 255.61841528756358 115.18805400704917
89.75430213498989 201.6261473209289 203.53368204484494
347.60382998084896 158.80171703769724 211.05185057383778
153.9670749340932 139.70088104343603 184.71511208080162
320.11444618326976 154.97637702898592 345.33602460855457
135.39727136719014 163.56045492380156 313.7834828639992
267.32458325880947 167.45463755978244 115.3778060759824
209.90778693407125 268.1792354361718 403.17857346302145
111.55491031746307 252.59511953805853 369.032146911068
163.99156830493718 211.3292742376357 102.16148253012686
373.05609846144444 260.58069508840845 263.9239956924048
217.54276447460808 182.40004958842977 403.6361006612189
78.53913642410328 268.0647960724953 145.8511990166767
281.95147335934035 131.16861328685138 187.75706457000055
332.8725775014658 185.9777684954367 354.17854573874575
405.9327458676058 245.64599237658348 212.31268297825915
357.8083608245309 185.4466040130579 184.63939810241285
138.87030475710395 161.73723023646244 179.8169888652616
283.97149901484556 247.62023511398576 96.77380045976754
258.0664409677687 163.83864358174824 368.80162125375915
268.30647979494455 164.61976236800572 364.234860853711
285.0055092033798 247.92638709345368 98.5829265587177
140.51972412964548 162.83460603679512 181.2220050307588
356.8215498721476 185.74317475267628 185.96788621136744
402.9545372293182 245.85879147040032 213.5745542406058
331.3813350069208 186.51962581613856 353.1784711676426
281.7087003949748 133.6006803634317 187.77571797258426
79.2806999281028 268.62282921206526 146.64721122164246
217.67704110852108 184.50677647905297 401.8062838206972
371.56395602901205 259.5490433400855 262.7274332962926
164.20337030278688 211.8012877148948 103.14866612801829
112.47200998345714 252.68360514581576 367.39297838414785
210.12318405202936 268.17812861105347 402.6978451196979
266.1284870887409 168.28494097231084 116.64067529595675
136.25051869123482 164.5834485619368 313.0504865495262
318.7695866567653 156.14963767150547 344.627590475715
155.20424204293917 141.3865557189917 184.92112523706865
347.0258050586315 160.36720271590548 211.03048668172394
92.20186024729291 202.38653745781417 203.74036434455408
316.4899686240478 255.075741389232 115.55820089554899
303.3020664379338 269.6919431264177 398.48225283082564
262.5938894938238 129.96011450566849 311.3886910045721
191.17524459403123 129.59982314503083 219.55450380733174
191.5653393358544 126.31265630988487 172.56832527551904
195.9287075886133 152.33058266848883 116.94754279484653
296.42755004086354 153.33623311578367 355.5341818149574
237.86152131709835 147.24872681812894 312.37116472741513
208.47881785753842 143.38155067035748 227.62649529461268
205.79479139534274 143.5042085574272 226.20648909254382
239.31795051705066 147.92104927603287 312.2966177915485
295.96825006786605 155.05710461342764 354.3734519667036
197.358576419172 153.97358353360315 117.94947671911223
192.22222926256353 127.98515519096178 173.30868588892687
191.86486188853257 131.7911312640494 219.08862619731116
262.40889848446045 131.90832568907445 310.93909554963454
302.5537826883236 269.6313579420525 397.1983595155822
314.85875944128617 254.51934129182268 115.94516090313027
94.65145383527945 203.17839783704005 203.93842025151733
346.4404038242394 161.94872285275534 211.0081184375869
156.44322491523033 143.075941328389 185.13255107156698
317.42317244626287 157.33264391360495 343.914732555368
137.0317292250073 165.65416574223795 312.43898643186026
264.9167497906415 169.12281446885245 117.91963334708738
210.36595759820585 268.17919583568164 402.14526767926696
113.40784420553587 252.7759557541572 365.7253967212776
164.4440595266671 212.30649639460006 104.20749877979158
370.8842493034148 258.53992574124914 261.7197021903682
217.72677183798413 186.60027249236396 400.34279725826303
80.07409350162051 269.20927103093095 147.49827044043224
281.44536677848845 136.09623676703015 187.86894169665325
329.86688109132234 187.06466632649014 352.1614811809509
399.91719484324346 246.08343843738197 214.88359823622997
355.81459759279846 186.04710511663998 187.31980666317398
142.18290212597682 163.9389498449257 182.62780513775292
286.0542796982363 248.25360881963957 100.45968578678665
276.95707301218147 164.23550613932343 360.0080471077131
283.9243786097193 162.86893723497172 356.23023736680534
287.1184860712405 248.59983183241593 102.39969983247137
143.85925826591458 165.044074032679 184.03050199385643
354.78811912012253 186.3590499895129 188.69460886904767
396.82818596932697 246.31876197002964 216.23519578025102
328.33074289582487 187.61338131898216 351.12842079583226
281.10391734869427 138.81991601989148 188.25608273810795
80.92038036512692 269.825451369737 148.4063924730993
217.60545685249477 188.60773035342612 399.6329514863101
370.17913453268454 257.4810546022681 260.6570922394674
164.71795718523614 212.8476756125319 105.33938297195827
114.36165689548041 252.87245564514103 364.0304969961676
210.63832272733006 268.18340295370973 401.5113080016153
263.6903624189098 169.96782914390732 119.2134372567571
137.80287696915585 166.7690674826698 311.92614158667504
316.1385249194618 158.55960582896265 343.1741622568238
157.67526575045233 144.76302317209374 185.3618838788305
345.8476448663049 163.54566833360448 210.9848719748427
97.03870309928611 204.0169931603962 204.1234855999467
313.1841896767471 253.9512543176959 116.3492490019816
301.7901642130445 269.5689981942918 395.8825042650351
262.21859595445795 133.84228654247636 310.6119689163957
192.3251213135316 134.3114674288897 218.70921261778452
192.86574176911702 129.68788124574044 174.0529279248509
198.87434875174137 155.61859101009753 118.99826546818065
295.55635231683954 156.80318845597654 353.1675311452212
240.82946818876835 148.6220554975235 312.2259255129926
203.34863536492642 143.57984394531175 224.3947050537162
201.45843440552105 143.4805121894206 221.96014515366298
242.38622825303995 149.3508576750894 312.1465694832789
295.14474276741277 158.5551279239221 351.95825771728784
200.69969828464818 157.21923445715532 120.22134366305566
193.3948814027936 131.53742617675832 174.78257937174396
192.77557412325464 136.81074989517762 218.31009469583364
262.07185331417486 135.7111172201035 310.440756024662
301.0106194266438 269.50498400998606 394.53516093044215
311.4690704596993 253.37353961419046 116.7704454060797
99.18096893580238 204.94939167855955 204.27965125289026
345.2475766009861 165.15742921299318 210.96086583254467
158.81534815273275 146.39030547730135 185.7333769681379
314.8475999300346 159.79243270472392 342.43163615584547
138.58478584085395 167.89807071483446 311.408221497584
262.4503030827405 170.8196137472214 120.52096508300613
210.94223946528612 268.19198150572055 400.78571293493155
115.33269035097601 252.97333810216725 362.3093688381397
165.03410477052375 213.43010453308182 106.54034014305462
369.44506689266444 256.37456829054025 259.53963457286744
217.5121724701703 190.68252830908747 398.78320354532843
81.8201144704158 270.47258304937225 149.37316422232237
280.7607464524523 141.5523436906963 188.644247222898
326.7743218470117 188.16617619111986 350.08015313149286
393.69431372032386 246.56357148874815 217.62513401837032
353.74280360667 186.6796194172823 190.09165240038976
145.54978948039988 166.1282019409377 185.41531073814477
288.19862340348527 248.9629181165286 104.3984553060827
365.7664632894139 234.8718541208131 265.8532685274339
289.15286365526424 162.3466625656292 352.9659160217716
292.6261318514366 162.55092621461537 350.3271791104305
366.20353309728574 241.80698102512739 261.8323362266329
289.29515822412895 249.340527490506 106.45152142535326
147.26033764620033 167.10837224826955 186.7241693282823
352.6794023579 187.00936326332038 191.5102157179885
390.5220063965728 246.81660684048032 219.04967937663196
325.1989140225066 188.72337725298195 349.0175475199877
280.41597659850044 144.2929976260546 189.03346867047225
82.77328827326465 271.15170951529956 150.39966083055734
217.5002879038001 192.86947278393797 397.5593367679666
368.6794780282637 255.22524215551286 258.3685878403302
165.41453315433102 214.06663925800257 107.7919440614364
116.3201907604237 253.07878781466854 360.563091647906
211.27924871448576 268.2064591871247 399.9576839702453
261.19769328251243 171.67809342124892 121.8413379709295
139.37724015784403 169.04099401865886 310.88521519642785
313.55067966462315 161.03090465552427 341.68724361694393
159.96010962846916 148.0243445544415 186.10828461142106
344.6402746639673 166.7833994875993 210.9362105813986
100.54531698734199 206.10918715283032 204.35601691553066
309.71680075742063 252.78911692648106 117.20859394552868
300.21460933336084 269.43945267135274 393.1569246589677
261.92489671406537 137.58871103543518 310.2688593806095
193.18698225535982 139.21144313284702 217.83342759430744
193.92673921425057 133.3948783973237 175.51655383699264
202.4774359651072 158.84645792371643 121.42780556993078
294.74078041944216 160.3050519582127 350.74711691466723
243.95128108098132 150.0973312810006 312.0049810974358
198.92349174678458 143.504546715107 219.48260781044087
195.36479282421507 143.7329095741148 217.10191510858792
245.35886664079834 150.80966390453986 311.55370139069294
294.38757596637043 162.007462000557 349.54229391275516
204.08861108211855 160.514867473593 122.57279268816811
194.47940684048402 135.26450131944011 176.2487996822473
193.4443668243205 141.20624220121567 217.05618400916038
261.77775932385856 139.47480457918036 310.0961668755471
299.40165796810965 269.37255446576165 391.7485047734595
307.93339794083903 252.20693036570634 117.6643432988512
101.96615727649672 207.3244525426044 204.43512599704127
344.0258390520709 168.42298123080914 210.91100864357327
161.1092882464156 149.66470895314777 186.48632939474527
312.2480344832876 162.27480933401515 340.941067332447
140.1800118932144 170.1976420994282 310.3571175133842
259.93488693755035 172.54510920301044 123.17479420327872
211.65028596758194 268.2286705390843 399.0161516847829
117.32341306114606 253.18894388679337 358.7927301681841
165.9165484576784 214.79245482614002 109.03623382782894
367.8826579497694 254.04459370444673 257.14690998573366
217.7239481572729 195.30608354696375 395.27880280812076
83.77930600315719 271.86365353828353 151.48638168273607
280.0697476487529 147.04126726673425 189.4238600590981
323.60572484869914 189.2852385986057 347.94146826426396
387.3178239488833 247.07641998879134 220.5056605547551
351.59871540144525 187.34875890772102 192.94950767826316
149.01170907920573 167.66202549485294 187.7275324476877
290.40897533446287 249.7296349738057 108.55491182170557
366.29026838133007 246.8413086131378 258.325434742567
366.08892050931365 250.0061466165252 255.46816145076187
291.5426554812593 250.1250775656883 110.70590240615233
150.95911472278615 168.1891355262935 188.64426269643587
350.50157700594247 187.69820207088975 194.40868108012276
384.08937520049824 247.34113638519375 221.99059817204787
321.99587884925194 189.8519477456742 346.8527643242316
279.72226777486225 149.7962196789553 189.81577328447855
84.83698733820279 272.60897196289784 152.63321303180288
217.95567230771806 197.7766139035451 392.96722091187604
367.0639312838367 252.86702778425277 255.88137716182067
166.6927360632702 215.70760557449233 110.10556580396903
118.34162514554141 253.3039032909754 356.99933051373336
212.05548642713643 268.2607309708687 397.95016533195343
258.67285737533604 173.4354758099241 124.52874326235757
140.9928618665646 171.36780623873972 309.8239294380261
310.93992311524545 163.5239418765055 340.19318393375704
162.2626669347095 151.31092781691794 186.8672956770887
343.4043911356838 170.07558808061003 210.88535428074925
103.44436419603015 208.58936989633858 204.51721590537068
306.14028390946225 251.67221943728532 118.14430526809058
298.5713612790479 269.30444831883005 390.31071501198306
261.6309454628517 141.3694729571053 309.9218902752143
193.63963995014748 143.14685837005214 216.27450428107164
195.1956012600619 137.18335209041663 176.93359609013993
205.18684179466058 162.2648300540732 123.52435926002863
294.33960273649893 163.39225952981505 348.39360577174523
246.80380881160863 151.54786784163633 311.0894781564004
248.28423977453932 152.31128496158647 310.6123198318684
294.2943338168835 164.79317525966005 347.230552919914
206.28814827277236 164.03364681655216 124.48013553634767
195.91231427352628 139.10777074232107 177.62267307357644
193.50954093734362 144.68185596980206 215.48216101348197
261.49096729349947 143.27711890478417 309.73650892416583
297.7233940618156 269.2352974228735 388.84446152378956
304.4513428940607 251.4434297033953 118.69056694428224
104.97936141982757 209.89759362062412 204.60241180618428
342.77607064655245 171.74064809460384 210.85933373345665
163.42036605538343 152.96183731440274 187.25137900587688
309.62659286219366 164.77810467919528 339.44366448778067
141.81554104236847 172.5512648630703 309.28565841779374
257.4811909012533 174.45256413635832 125.95950373556106
212.4940025793693 268.3049499196745 396.749405430547
119.37411144422025 253.4237246380237 355.1839168730439
167.51349820744977 216.65269238796733 111.21861157040084
366.2645169951921 251.81265865475356 254.5921841330808
218.19511981956367 200.27702747146753 390.62746636835107
85.9446030160926 273.38792148856174 153.839422420268
279.37396356430696 152.5559042975309 190.21026601445251
320.37042093247874 190.42362374271968 345.75225845052876
380.84704073182985 247.60799264638874 223.50293662930864
349.38883934897484 188.05799849022745 195.88684779566512
152.99756060487132 168.68771569917362 189.56188210049197
292.7041615128188 250.51536304325072 112.90523812625572
293.9175597329342 250.8706958351171 115.16349427077432
155.284463955115 168.98720258629666 190.41432199628392
348.2613457560906 188.4283420264734 197.38309723742816
377.6072903477355 247.87244889068532 225.0424678564633
318.7302827495859 191.00027197815368 344.6407253132635
279.0259250435635 155.3152789835738 190.610470957311
87.0999399646672 274.20043953726656 155.10368632177924
218.44218038154366 202.80258551997184 388.2623438452972
365.6448487389991 251.33041746757397 253.354795187373
168.37782532452633 217.62735313611174 112.37388523666112
120.42017598332927 253.548432222633 353.34748956533144
212.96386044761422 268.3636488973321 395.40481775310053
256.2801470545831 175.47635835510744 127.40082455754639
142.6477919129293 173.74778422961703 308.7423185849156
308.3082793674745 166.0371055519615 338.6925741701413
164.5859596041089 154.60850680073125 187.642963496365
342.1410327292159 173.41760595866592 210.83302563311
106.56925557948989 211.24273658337302 204.69072684522914
302.74039043250065 251.21950853261953 119.25429290251205
296.8575146784366 269.16526506362925 387.350729139758
261.3507012060143 145.19178052545632 309.55081309863675
193.37162415793014 146.25275482149914 214.6772291512315
196.62944671214592 141.03750404420813 178.3158693670584
207.39206288842564 165.82035197387367 125.43990678140803
294.2510853405478 166.2103236638638 346.0534580177606
249.80096469154398 153.09551497427154 310.1234240617609
251.37098787720714 153.87619316970836 309.629952747251
294.2091276092303 167.64354687694117 344.8624416696317
208.49817939787803 167.6240223020403 126.40346607398621
197.3465692485524 142.97265827857697 179.01335470201886
193.2268374360818 147.85878702110887 213.86055197457003
261.2160128456369 147.11120133225555 309.3621211385629
295.97356743573374 269.0945108223865 385.83056651187997
301.0362376950672 251.01761915104152 119.85499764574219
108.21110718183344 212.61876563845033 204.78207915439017
341.499445158039 175.10592390434755 210.80650370913463
165.7996386944757 156.15753884784394 188.09127676726135
306.9852008780539 167.3007370167234 337.9399627625916
143.48934994070441 174.95711922529634 308.1939309048578
255.07044110575632 176.50647150174115 128.85191556177145
213.46187987631313 268.4388344646213 393.9093616180325
121.47914520880002 253.67802059812198 351.4910270431482
169.28431380480112 218.63111951768258 113.56955293461372
364.9964661294683 250.84241702891575 252.06236123147517
218.69716137889927 205.34691528827736 385.8747935331402
88.3003898905004 275.04614250453943 156.42414827371422
278.68122787192914 158.06001525530556 191.02561470155226
317.0760540377712 191.58148867192028 343.5187957268312
374.39916126447935 248.12648445450415 226.61109557212197
347.11983938502783 188.8091948994673 198.89653330669296
158.45554749160485 168.43774844565567 190.96028484814542
295.25432807766396 251.1088018652258 117.51979544212728
296.9249436749702 250.99728961587522 120.097281762286
163.3181203573592 165.95776329395954 190.80183676028287
345.96448480203725 189.19957612296747 200.42642579659704
371.2770008720904 248.35531902856292 228.21418653724365
315.40661295985717 192.1647130528646 342.3864118888601
278.348864784616 160.747985166531 191.48281750433108
89.54305281083235 275.924341453626 157.79850114047616
218.96114299558846 207.90019261283294 383.46831166149116
364.31886291113364 250.34917388505866 250.71614584090338
170.2311481403851 219.66336240587222 114.8036715916733
122.55037151743397 253.81246103208827 349.6155019893743
213.98367266135764 268.5316478702812 392.2588764046714
253.85273372262247 177.54254242461457 130.312054461351
144.3399450332409 176.1790142710085 307.6405232417935
305.65748767356274 168.56853290724848 337.1857475387089
167.0696699742585 157.56049638273592 188.58581503718264
340.85148625769796 176.8050717289264 210.77986994361476
109.90125027772639 214.02025616840805 204.87632653016422
299.5276099249232 250.95318231496236 120.62856312835311
295.07148264299195 269.02318729229677 384.28507074264587
261.16625554221486 149.00742936022323 309.1354944024136
193.07620328088336 149.49908766102268 213.03298080743275
198.06096414199015 144.9157014556118 179.71750903094156
209.60614746671232 169.44377931577827 127.3706165703695
294.1674704660555 169.09134231509597 343.65576965168515
253.1059864458937 154.5155980719259 309.172588072829
254.89766935829618 155.17681088417316 308.70473845869304
294.12332813517196 170.54354122050438 342.4185423876902
136.21987440447893 219.49054022910926 179.68845085292816
210.71567202583256 171.27879536375454 128.34117732803466
198.7542198060649 146.88539300109565 180.4459006258344
192.92078765183808 151.17268593685534 212.19538124852215
261.1161254761533 150.90881068832806 308.9039554833857
294.15127450111106 268.9514374029894 382.7153721031844
298.35293418103106 250.8992396297471 121.5003154001209
111.6355502740119 215.44248841864157 204.97333646423218
340.197350421622 178.51437146233036 210.7537057943134
168.33840990575135 158.97256696328841 189.082525974899
304.32435184495563 169.8368910552919 336.42832845660433
145.19930302357994 177.41320431973074 307.08213033921794
252.62764472464724 178.58425503380425 131.78058487195688
214.52370594109198 268.64145745780127 390.4531198429982
123.63324063606623 253.95171542635995 347.72195148590015
171.21591627797162 220.72314366796988 116.07493352958531
363.611800914464 249.851102108503 249.31794142871368
219.2366565921951 210.44558662441003 381.0478147134395
90.82484646814636 276.83407308706256 159.2240848326512
278.0554397014099 163.25392089773496 192.0617475944458
313.7110370680471 192.73504101525276 341.2395955540464
368.3456232900857 248.53109179548318 229.86290998892127
344.792094180736 189.5933562607588 201.97306211469103
166.3369919111357 164.2455761024115 190.53731433714742
169.27656752907555 163.08511702683438 190.4069853219842
343.57977476967704 189.95449754933887 203.54285741714563
365.8100596107127 248.60066023490674 231.5781929273278
311.92088379119303 193.20596602764735 340.0511657667743
277.879959065703 165.2039665572388 192.99641240130325
92.14261455786647 277.77414206478534 160.69799026893216
219.52898474267786 212.9522865704607 378.62142291874204
362.87512515214763 249.3485766055502 247.87037903500612
172.23476814124092 221.8086911726327 117.38530562314229
124.72719341331283 254.0957797618252 345.8117588760252
215.07537389213675 268.76434844338706 388.4971557196346
251.39581735343322 179.63145441596075 133.25693401249902
146.06714712974184 178.65941593391176 306.5187937165253
302.9743580582369 171.06503418224196 335.64826212516135
169.52257969246816 160.4304294069258 189.58201237338443
339.53735812892825 180.23082373122907 210.7352756793879
113.4094015983095 216.88134857122947 205.0731771659722
297.4274784614403 250.84088316666194 122.44192933797248
293.21303708271824 268.87939240729247 381.12261937906914
261.0624838431978 152.78922400639433 308.6094599368609
192.7616667623793 152.87850090331776 211.34863197979945
199.30041898417804 149.01365121359484 181.32092065485693
211.82653015628463 173.1283172388894 129.3150043453791
130.434178852788 219.96698846020658 187.73102298103865
294.06169671639896 171.9311702849084 341.0450090791809
114.21914695174044 247.81910893403239 326.45028970456207
256.84222909278304 155.85858719590965 308.235978031739
259.4222134147613 156.56220712473052 307.80798532850514
119.79092030249696 250.48585782317875 331.5641678202966
294.13967521501786 173.2265466632546 339.3970725350203
126.17930989652794 220.74171936367011 194.52155781653858
212.93865602705745 174.99176123450692 130.2920728518019
199.82114316024376 151.18214268127872 182.20132590947156
192.59989467204105 154.61534380342704 210.49361748876703
261.13591443761123 154.55781740550566 308.3000010475097
292.25693873376343 268.80717057704004 379.50796631142424
296.4869853743568 250.78266627667932 123.40526255168137
115.21685172113044 218.33280852615022 205.17677028966077
338.873545212671 181.9188295042235 210.82390010326853
170.74889988881847 161.7512470730091 190.05552951940197
301.7127938708423 172.29765858531843 334.82256134202805
146.94319936870235 179.91736842518722 305.95056148495786
250.15827449598513 180.68483063785354 134.74074667229584
215.63095477050834 268.8905449732697 386.4035257741461
125.83179707395384 254.244843456249 343.8877690858618
173.27911727358153 222.9154038656685 118.74994282522513
362.10787825555855 248.84227599553256 246.37863090139706
219.84865541596776 215.3617991540911 376.2041447778153
93.49323252091126 278.74316966407287 162.2171617821999
277.6957809438711 167.2129275793459 193.92947468536983
309.9338183397892 193.56414089442194 338.90984742142626
364.07401134927386 248.46204244873863 233.39720015045555
342.18826273888106 190.07141844641313 205.1793122876721
340.60313205358995 189.90470147344766 206.8999562639099
362.28614325970557 248.30392237323693 235.27416533632578
307.9358203495286 193.91653726003216 337.7618937073115
277.5036065903147 169.27700949799117 194.85764577516156
94.87372352736793 279.73964327973476 163.77849393870756
220.21622878172812 217.5609877527317 373.82548329559216
361.3041439738911 248.33486695075146 244.85890356810037
174.3232338259308 224.02820898073514 120.23518307774373
126.946979087422 254.3999023073033 341.9586912781131
216.1812322467717 268.99987719545754 384.19613417626266
248.91846978666445 181.74993021602614 136.23271661340078
147.8271819029514 181.18677503774651 305.37748808867894
300.52489249129275 173.56973791945953 333.9899397533242
171.96290016592883 162.9536278169683 190.51545736976536
338.1994871925657 183.58261389153446 210.9994368005763
117.0465213071899 219.7909521090431 205.28831021910543
295.5321704288977 250.7263615568172 124.38981850283963
291.2832152439995 268.7348768023613 377.8725596062449
261.3865149546011 156.2168358428596 307.9579784390174
192.43647419010958 156.3819274687346 209.6312166648667
200.21674254322198 153.533317326911 183.08982580895025
214.05249510399904 176.8690946282376 131.27280337671422
123.34469446610832 221.6782675913207 199.91327348004708
294.69861064425356 174.45918101990452 337.1590199611074
124.41507987410819 252.59801784348647 335.00638229996844
303.660921022061 196.38948930656605 335.8669977266079
127.97531454244353 254.12381419049555 336.85981062574007
296.85052198800616 175.91345275699513 333.53382473159337
121.85461285734095 222.69325722087532 203.82645076092882
215.17042903685893 178.76236176229185 132.25935610364337
200.59429181050496 155.9122742508563 184.01230289142407
192.27233301945574 158.17688203862423 208.76228946593747
261.72115880991424 157.7912783130906 307.63698902020917
290.2921620245101 268.6626041610389 376.2175294485512
294.5675588401826 250.6880474897243 125.39242345357896
118.86517827518595 221.2402678157692 205.42442363349517
337.51637401481133 185.25090742983392 211.17938791753443
173.19548034876104 164.1363243030281 191.0233286652317
299.45737408427425 174.82432315549158 333.0633078287685
148.71881830107426 182.4673441558179 304.7996339787003
247.69418399862056 182.86068384791415 137.73961029550048
216.71440069950518 269.0536101366518 381.91770094968945
128.07377341672398 254.56514434608468 340.0564783142888
175.27808793317953 225.09236547863026 122.10515112954369
360.43340488828466 247.83931262374114 243.37989146609843
220.6714827909471 219.32898538549227 371.54511456908244
96.28143266772811 280.76196080847143 165.37892693823437
277.3049487904881 171.3989295275626 195.78027628748558
305.9502477835802 194.24164804459667 336.6150991318302
360.486619573851 248.0682072194305 237.2894238775588
338.9777406742139 189.7063484715303 208.67684474931144
337.236675776019 189.3623547327743 210.63840087566885
358.76782393404187 247.58968350071618 239.68997474094328
304.066015488884 194.45551948186656 335.49834062459115
277.1040086057546 173.60696051067717 196.70361929226607
97.71440489905218 281.8084625279185 167.01556521463186
221.29102716462134 220.23264154622728 369.4851537409691
359.3474615596288 247.42000738535194 242.26434539851496
176.25585507201865 226.19016342405652 124.0073222002228
129.21658530132746 254.75726243625718 338.3049618075646
217.21358928008337 268.9794657427986 379.6443942780529
246.58662768013872 184.21745950283048 139.30449168344094
149.61783469757773 183.75878051570487 304.2170652289237
298.3936813091597 176.08024335824516 332.13340279047594
174.4359641279614 165.33132045783864 191.53443998328538
336.7682629212419 186.86314908467807 211.40603035125866
120.55298541412267 222.6248574780646 205.64904447627913
293.63552412075717 250.82334319693834 126.38423827516058
289.2841249453494 268.5904428874417 374.5439862158226
262.0589571766738 159.3814348412233 307.31263133990217
192.10830620047605 159.99877535137756 207.88766394955087
200.9036745735097 158.38892606584156 185.05275486373426
216.30246309429896 180.6817821865443 133.2607704956903
217.4888893622669 182.67011422283542 134.3133778305217
200.94886729837907 161.24357270176992 186.54356631996723
191.94512465158667 161.84613581386586 207.00812714673953
262.39949397859215 160.98701973959413 306.9849874549588
288.2594867287911 268.5185234866658 372.85304117541597
292.689123025188 250.96206893762678 127.39606880386661
121.64872498037597 223.72456123594387 206.20646780881967
335.98800393797603 188.29460601350672 211.78230631101792
175.6340966174435 166.57483739263662 192.02932545355623
297.45866325949083 177.28532873142612 331.17748130676955
150.52396084115702 185.06078640354306 303.62985310459425
245.5707889621723 185.67330984866865 140.645653571079
217.65181156993089 268.64391083156863 377.514596087966
130.38949066429572 255.04182264013073 337.1910222521424
177.24853491981503 227.33120027841147 125.90949024024225
358.20862600736183 247.10031166094555 241.55076234653455
221.91695770343793 221.1968724229841 367.380484641591
99.17239171823137 282.8774392268329 168.6859022032125
276.9150662955485 176.02881531905217 197.6591638878092
302.63289621142206 194.23135798566076 334.5259051809905
301.1550609549061 193.992575010382 333.5221144155651
276.7795694301821 178.5550575765709 198.68446530886436
100.65972364310568 283.96709845910925 170.38841090796015
222.55484069106873 222.20288456450683 365.25281372569805
357.12033897901813 246.7550067159482 241.15455511875896
178.2376130611891 228.54682191470172 127.72709360811741
131.59049196422515 255.33524134359556 336.06001142610063
217.98220135638286 267.8006889758787 375.7851360294295
244.55664588125325 187.13704246728406 141.98493557240297
151.4369310245423 186.37306282134895 303.0380735940027
296.56349835497986 178.52174019535167 330.1332811315976
176.83802875574634 167.82979980949094 192.53139647653734
335.16365582702383 189.58980046704858 212.11323167740602
122.67301596844449 224.71926183217036 207.0099950376016
291.72862882083416 251.10427594362943 128.42762319728658
287.218632710654 268.44722458496835 371.1459390815722
262.74226324369783 162.60771805312964 306.6542627869594
191.78340642126452 163.71747478415298 206.12443212929873
200.6539172695594 164.60223530707628 188.27463133823187
218.8905654887386 184.9000055905171 135.56189024067422
221.88746656238305 188.50061489782277 138.23999719138854
200.131888577769 167.70079288226364 190.10488545623352
191.62363266792545 165.6113008381257 205.2373882320332
263.0847634816828 164.24325039287606 306.32312434006656
286.16181737542706 268.3781820444857 369.4247381280757
290.75432856718334 251.2500820439724 129.47855160189792
123.72542344384621 225.74267177808187 207.83152876209638
334.3307424688313 190.89513399236748 212.44775832964416
177.98030320839095 169.1160404548202 193.10191000269225
295.66494093969123 179.76388891005703 329.0848084349098
152.35648489278336 187.695310605865 302.44180691434474
243.56651889557523 188.6182179445035 143.3060428400105
218.3563125052097 266.98877195311474 373.9967449892842
132.81905177742632 255.63727215748045 334.9112469626669
179.17218639929112 229.92929937829632 129.22267649905513
355.99605932670914 246.4013936335724 240.74968800454607
223.22530925519257 223.20693969248788 363.14551656495803
102.1936575124527 285.07546842769233 172.12430388886614
276.8147580327014 181.28761963642424 199.9533603865283
299.63175803650853 193.73297852222373 332.48187757318465
298.0615480960756 193.40769961006882 331.3771436766483
277.35607221676287 184.54690785575937 201.98097755361175
103.8287503239416 286.2002695657285 173.90294526410423
223.9895426504345 224.09472120748626 361.1690223457505
354.83544178016507 246.03955971765097 240.3360929953522
180.13177844836022 231.31513170835007 130.72784565843216
134.07448472871303 255.94762221296475 333.74411531214247
218.85403776824975 266.2671860753557 372.21768692131974
242.73146690915465 190.1733053665818 144.51270470527973
153.282368130181 189.02723148701497 301.8411370023011
294.76050016325325 181.00980647582526 328.0336207817202
179.1271872775861 170.4127936409424 193.6775607115861
333.4894271630076 192.2104742180592 212.7857946466036
124.80460714977295 226.79311299662425 208.6698318639099
289.76661531112285 251.40048094201111 130.54827704390289
285.08855531225333 268.31920182674065 367.6956941651485
263.38295436227605 165.8945393409856 306.04491670997567
191.46600937138984 167.52608662897921 204.348424186955
199.16554643887568 170.28207739694514 192.1246447736874
227.16210875121757 192.34365134047684 142.03518676746612
231.49924714056766 194.7887254038576 144.75019681583137
197.33006826918103 171.8355748194983 194.50732623488872
191.3096524491243 169.4599430201371 203.46290958164315
263.6820686467427 167.55975005456267 305.7644229496087
283.9947417923988 268.30820340904 365.98603419700197
288.76702127114754 251.56603340488167 131.63414433609194
125.90933602898211 227.86898627971033 209.52375972754712
332.63988289549155 193.5356836312793 213.1272440588444
180.22917928375915 171.7376993063001 194.2742386656212
293.8044108728112 182.2247108334233 327.00594263843817
154.21433302895105 190.36852907531392 301.23615099921494
241.92441513303297 191.76052569706528 145.6970356533216
219.69932358124552 265.80162345115673 370.6305069511901
135.3559671050936 256.26595756839043 332.5580903924014
181.14732163751847 232.65655481470023 132.2146507338108
353.6383155731727 245.66963296548874 239.91371843800758
225.02125166602093 224.54845177775744 359.6344425338585
105.72816622148031 287.3391058793261 175.75857260773319
278.34722364257084 187.95224216442412 203.87528006333824
296.4354193836497 192.78226846816116 330.0656573100965
294.50427557029957 192.00613053850634 328.69305968486964
280.1836826058762 191.59021847378511 205.54415424204015
108.37262231962546 288.49178641625906 177.8019081327158
226.07402677574015 225.04225055594185 358.046515402912
352.4046953914064 245.2917812539395 239.48253482182608
182.33942766568504 233.77056759954908 133.57924567453836
136.66255120135125 256.5919098896252 331.3527493505735
220.5526195900856 265.3296679262137 368.97190181251904
241.31855083934065 193.5300801985387 146.72032360022894
155.15213894505555 191.7189097701811 300.6269387397958
292.844598593016 183.4447669470934 325.9744001293932
181.33631505960753 173.07193469144792 194.87509535321098
331.78229140559887 194.87061941578685 213.4720057483636
127.03847907410334 228.9687751849848 210.39222830300926
287.7695748469746 251.8602509043025 132.71147916585696
282.8589649519 268.5299755248587 364.4270614098003
263.98179446388014 169.2384817433618 305.4817182158014
191.1478731668134 171.4084367537835 202.6096477167924
195.0409638550888 173.49429292271412 196.96056152234047
234.86178626990014 195.8597171515413 146.38722074551896
238.64127547462903 197.03463716069024 148.27120797452832
191.91512029600185 175.18134800615292 199.5359363541918
190.9410427550387 173.3506142070246 201.95530263328132
264.2818424582704 170.9303141388869 305.1968799618199
281.70976215943557 268.7537217831524 362.8548562674616
286.75982645881135 252.15960833838523 133.80533881644834
128.19099033507638 230.09104027077754 211.27419389707038
330.91684218126784 196.21513335185244 213.81997537979757
182.4446122276294 174.416854147511 195.4783867046453
291.8776229658954 184.66508517471138 324.93998589709383
156.0955526484425 193.078083583652 300.01359225214696
240.9310877038335 195.24386690612806 147.7490989286674
221.41134478604556 264.85324224379394 367.2481836228339
137.99318377971932 256.9250837698126 330.1277844392836
183.5471480966595 234.89360804218938 134.95610631206128
351.13478703070587 244.90621022042225 239.0425407937619
227.14256839002417 225.5757960661385 356.40933088950476
111.08028173110837 289.616893107185 179.91464458681492
281.8278785386689 193.91431833394617 205.71744706109092
292.49336710099715 190.84262333242904 326.8885591895809
290.3749067067807 188.53974502921247 323.90902563989
283.6473631389952 196.3579866775327 205.9719194702339
113.8732758688424 290.6704675762379 182.13469338818948
228.22128051919267 226.14850045668265 354.72845674969284
349.82898712858815 244.5131598851085 238.59376886994716
184.77373715635787 236.01939918223235 136.35148572242747
139.34672828677444 257.2650629808196 328.8830101510476
222.27352422091113 264.3739046264541 365.4653427654929
240.57607854738058 196.94040645851072 148.77237804646444
157.04434857623508 194.44576487628416 299.3962052755953
290.8359331953106 185.79158516052092 323.9192239748843
183.4715311355359 175.81021031897248 196.0462852624144
330.0437313979145 197.56907178963561 214.17104584991304
129.36589535499604 231.23439657011792 212.16864619794245
285.73805088063153 252.46405431198846 134.9152974703564
280.54758415862665 268.97934644704003 361.27014038887796
264.58194784372284 172.63481195359196 304.9099873163921
190.56946285067306 175.28654969450528 201.04601395418683
190.03172320100165 176.92793709232953 200.54517502133828
264.88187166167893 174.35152949696683 304.62112041776925
279.3728831098751 269.20675451477337 359.67360375391115
284.7045207768348 252.77352411019874 136.04091257661813
130.5622977253516 232.39741205353715 213.07462859147384
329.1631608181083 198.93227570437605 214.52510804167812
184.5017039030165 177.2111120991949 196.61952970951305
289.7914158289231 186.91835129764374 322.89450908609143
157.99830899854032 195.82167300260565 298.77487279993414
240.4784154509793 198.44330197857388 149.73969208753667
223.13770671937547 263.8928834923242 363.6289588226422
140.72199302037373 257.61140905605754 327.61836427317
186.03905233224813 237.1203338551794 137.79944745546007
348.4878767673675 244.1129001681647 238.13629027344226
229.30154157343824 226.76076354566953 353.01395155704625
116.79996713638033 291.57179670888996 184.53905445186402
285.7042382273753 198.86420486086595 206.30019861880749
234.21206436716724 222.8091308607332 348.61812906543776
232.44342051928763 226.62362106351773 348.97047285084517
288.1275105014497 201.35879701137796 206.689285565256
119.95988875296054 292.17023446665013 187.2803922327053
230.36057327661825 227.41834983182076 351.2930170685367
347.112209230607 243.70572555130633 237.67021837298108
187.4443392343242 238.06569603496808 139.470091306825
142.11778072295547 257.9636219637734 326.3338976303456
224.00292699587592 263.41113945521346 361.7442239997405
240.3804945394963 199.96573136295908 150.71563484818287
158.9572241124098 197.20553283826803 298.1496906014653
288.7634014617118 187.92959452088462 321.8663320387302
185.5218377707286 178.59033549363136 197.23849147403791
328.27533667042417 200.30458083810083 214.8820515692122
131.77949602661332 233.5780528389683 213.99137561942712
283.65950611176265 253.08794108946495 137.1817283502422
278.18610966004337 269.4358518264948 358.0659035742622
265.18140126819844 176.08001522635723 304.33035974557663
189.43527885648305 178.6115678399126 200.02477684739162
188.54936260318627 180.37541147766396 199.39575608470483
265.4803501963148 177.81981606224488 304.03778561814795
276.9877105417772 269.66654284702264 356.4476620780011
282.6032737881337 253.40721808067386 138.3372791349902
133.01771001678944 234.7704975585551 214.91908894980753
327.3804685262373 201.6858179287607 215.2417655004769
186.4749891114496 180.01720319651534 197.78854805641848
287.7288242737553 188.94783008117824 320.8313650018904
159.92089217050864 198.59707470829008 297.52075429818603
240.26976858215195 201.50596201738242 151.68260512968476
224.86884362173015 262.929479890958 359.8162000517785
143.5330402936874 258.32091766136233 325.0297262663937
188.86313623445176 239.0168428624408 141.15011208050842
345.70289265646267 243.2919492005271 237.1957103242856
231.31717939798585 228.14866599773714 349.6605174162372
123.55331088700561 292.1821677356971 190.65863990114806
291.1682112084773 203.73682860250636 207.1184121066655
295.30446731331085 205.8384577476719 207.5531146941242
127.98000031899608 291.07091189404036 195.26156937129352
231.85601681748892 229.06241748697042 348.4789337398775
344.2609687045139 242.87189689631313 236.7129667039387
190.29447692610535 239.9731693506221 142.83870820718616
144.96752009054367 258.6811181028366 323.70581356459877
225.73651496721732 262.4488581273093 357.8508406537711
240.04318793294385 203.04923835345835 152.48802772813693
160.88912125998792 199.99602560886646 296.8881498821937
286.6878189929875 189.97314879199217 319.78991437868405
187.28074423841645 181.43214373053686 198.2638755808591
326.47876819288183 203.0758130240182 215.6041390456488
134.28221761508374 235.94667658392 215.86332212363112
281.5360877156038 253.73125847304524 139.50709270729575
275.7781274237992 269.8987151253452 354.8194552767928
265.7785591135284 179.57048168155745 303.7434808058797
185.54730988080635 272.9270589278699 152.7848914074888
266.0759329261607 181.33157642229563 303.44759951804286
274.5578011186246 270.13214588609634 353.18174610231387
280.4582121367664 254.05995353271175 140.6906948856583
135.60665873547322 236.94905158167361 216.8598425365363
325.5704486405348 204.4743878735388 215.96906220063266
188.027212197276 182.8476389262323 198.69391324015078
285.64063541737164 191.00566647712716 318.7423202733817
161.8617593734886 201.40195552374462 296.2518010888004
239.8150052832447 204.6132824682841 153.30342078680007
226.61154061200222 261.97139024165506 355.85888669863
146.42488230343338 259.0352289838368 322.3609189496666
191.7374539961005 240.93405202875434 144.53510417936207
342.7875885870557 242.44590110619242 236.22222914186983
232.40431055473312 230.0269466677796 347.2547777957564
134.03690562000438 287.81682737747394 202.24203218881314
297.970885420986 206.7756779491061 208.68332290619557
300.77596325971086 207.79745355148233 209.83399732729058
138.7309098970468 284.75518367971927 207.77147214981812
232.96273895079537 231.04033036115231 345.9876129102436
341.28398788955474 242.01429548731798 235.7237761636197
193.19115448505235 241.89860192334086 146.23839022983188
147.92788076014452 259.3410440632842 320.98740289345636
227.51608466773772 261.5041682484129 353.87083684408196
239.58454303658218 206.1974910420213 154.12833556730604
162.8391943883493 202.8116913340266 295.6089196860892
284.58942825742037 192.04669821948738 317.6891625790378
188.7782234461883 184.276250341165 199.12781903637423
324.65572297854663 205.8813603907622 216.3364263370236
136.94820522903947 237.96167105062923 217.86455614393978
279.36995207436587 254.3931358150416 141.8876317266368
273.32720442017893 270.3659517387823 351.53448586851204
266.37327087798957 183.10286742290592 303.1518705444718
189.32288184050853 263.7005942376733 152.1671253607512
192.79750143762615 256.3746720476992 152.09467195856033
266.69028716682504 184.8883728159116 302.89212422752695
272.0870347022129 270.59535525288476 349.87474704253844
278.27213169211944 254.73001703311792 143.09769986140205
138.30606154326838 238.9838698352562 218.87676982327042
323.73480349590994 207.29654517274273 216.7061247317518
189.53376280353177 185.71763604780656 199.56543585735932
283.5790101324761 193.1254554138588 316.6361581510248
163.83064560341012 204.17587369146196 294.9113240388786
239.35121306903258 207.80110046871408 154.9623520022687
228.53440945031082 261.0739480895968 351.9948705648705
149.5926848185022 259.39468468952504 319.5453839411098
194.6544133694888 242.86471547133905 147.94690642431837
339.751461526169 241.57741003514124 235.21791761445576
233.5319039759213 232.0998874476866 344.67756509137484
142.07053980047021 281.9313694532614 211.84863555359763
303.6771447384554 208.894293919727 211.00265903875257
306.6263217709528 210.0606176802457 212.19290999328095
144.06388899203677 279.3851856742392 214.47306030932688
234.1122491898242 233.202326196849 343.32537052452375
338.1913399774358 241.13556701197265 234.70498813365572
196.12482213388776 243.82536444236763 149.655804445384
151.27535378875046 259.4471504777348 318.08214466174104
229.5781448611365 260.6408317212166 350.13916202912833
239.11467224559058 209.42292843202102 155.80583061910104
164.82610547007928 205.54638085052633 294.2102482175901
282.56318877876544 194.20883046407275 315.57707235313205
190.2937639262236 187.17142557546137 200.00660101596242
322.8079008022124 208.7197540617795 217.07805302875678
139.67944803429938 240.01501801885777 219.89583145475416
277.17175051435873 255.06256427625206 144.32361260298032
270.83930165929223 270.7926885068615 348.1826754184792
267.0061892601106 186.68329066120194 302.63120829471825
195.84324135065444 250.95321885108947 152.4570289402028
198.37470468718092 247.4311166735304 153.17713626676868
267.320913891873 188.4872075489732 302.36918421116246
269.5934146703365 270.79576527019464 346.3381294275779
276.1488803737889 255.29757682509802 145.6021399890547
141.06760311381916 241.0545208157949 220.9211321911027
321.8752236052384 210.15079666033108 217.45210956299016
191.05672918214134 188.6374411807836 200.45117448366005
281.5404883073214 195.23864920423398 314.48966862274557
165.82541868494658 206.92299530060032 293.5057875052319
238.87620925907092 211.05865003808492 156.66711913763518
230.7628078735932 260.1986505726428 348.48664375743556
152.97434434981292 259.49822548601963 316.5984834338027
197.594688207634 244.75402675815388 151.34732587859634
336.6049676846026 240.68907770940214 234.18534017394416
234.70399970444754 234.34394207446667 341.9323628157363
144.7188760491847 277.1530676972289 215.6448497119268
309.5594501943929 211.29666649120392 213.41557199004103
312.37637398137684 212.6109969487576 214.6916800537688
145.48558988733458 274.8289341716845 216.95031709702994
235.30713397287343 235.5208351101107 340.5004024968009
334.99368417656507 240.238240030894 233.65933702689154
199.0345324678174 245.5473910649374 152.9519728199387
154.68821348193106 259.5477397071042 315.09524908761074
231.94514514283108 259.75454918815143 346.80194543791157
238.6524659072533 212.67402161186314 157.63305656533316
166.8284363590043 208.3055063185847 292.7980357862214
280.51275725511636 196.27554079393047 313.39759749544544
191.7748494558838 190.1226164804812 200.89977483087694
320.9369900944875 211.5894791858318 217.82819412782035
142.46978558830693 242.10181825854232 221.9521074543568
275.1103185988124 255.54032767483773 146.89509219589146
268.33832446884134 270.799328609637 344.4875378035229
267.6344181850008 190.29972660173183 302.1061163467033
267.9467798052415 192.12047820663062 301.8421860942091
267.0743567656514 270.803292204805 342.6312591590111
274.05693106376566 255.79056871642436 148.20128752560825
143.8852769313363 243.15638447571695 222.98823687397436
319.9936786459404 213.03556750656725 218.20617532229375
192.49697088566424 191.6189587521263 201.35147361063633
279.48035603409056 197.31945431992153 312.3012390750066
167.83501581891352 209.6937099676144 292.08708538692593
238.44333869247725 214.28944193807416 158.61163314929877
233.124748017574 259.30916737746264 345.08884925804676
156.4156227762841 259.59556437785784 313.5733218500609
200.325711795086 245.7998846342233 154.19335284162213
333.35880822140206 239.78333683069152 233.1273462374988
235.92138856785462 236.72912002909288 339.0317644649892
146.35992294342853 272.43154440253574 218.37926602814466
314.9024189747358 214.02428100303717 216.058312636165
316.81488182144534 215.57513759626056 217.57879045604957
147.3363960586016 269.97472690940737 219.91974177572263
236.5462882454424 237.96513265685527 337.5290088275786
331.7016250527589 239.32463491361693 232.58973369058577
201.63920438730764 246.04887388848687 155.4511126413785
158.15533908264615 259.64160687786546 312.03359685234403
234.30130303527244 258.86305249193197 343.35056820667114
238.40199653188208 215.7737936070926 159.6332107418963
168.84502039871168 211.0874090611693 291.3730269393331
278.44649010846814 198.37256930661945 311.2022262699327
193.22302106926568 193.12602246814842 201.80612388555522
319.0512481767 214.48798557967294 218.58519782623577
145.31338329122153 244.2177255438604 224.02904354807296
272.989562776622 256.0479925320487 149.51968354149628
265.80155428562875 270.80736616836947 340.7696223702484
268.2603083728632 193.94933587612653 301.5800502477747
268.62329120386545 195.79097339466117 301.3735733942322
264.5186325322078 270.81025693276393 338.9029036494406
271.9090193444972 256.3122577529582 150.84936438649436
146.75343694692245 245.28536907441384 225.07409397918653
318.22961027373543 215.9276971873773 218.94909814619015
193.9529166709352 194.64335878520106 202.2635873389793
277.4848234786096 199.49249980088143 310.1336988628533
169.85831920464153 212.48641308757126 290.65594924302764
238.35191645801356 217.28391539704876 160.66755900771005
235.47371629605524 258.4170938248742 341.58978484150714
159.90623178705516 259.6858051294365 310.4769705918907
202.9746747973343 246.29501231187163 156.72528382324558
330.02337653570873 238.86238458544963 232.04685854679008
237.18118339645787 239.225754998479 335.9948737252095
148.41001475127467 267.465420780807 221.55916278219485
