373.02252828173704 130.03066473914316 260.795962029639
283.1024859321597 238.25542151582746 417.6214129573067
92.24173775096594 220.04040681608367 129.39381569091938
152.9478424187918 115.35544027527263 356.69793365285494
128.8611071117423 122.77109351154631 160.89454109634852
383.60638669194776 236.6347063196817 349.45456830741404
366.1626880143185 146.08482487610794 146.69975852591196
223.55941954690869 87.84293945553745 324.44410514110206
240.58299471321573 107.45426836745526 127.90580805517975
185.04152471412812 264.1850244418825 72.69646526866431
392.13289488633836 269.4860893591166 113.80019179248227
146.528893592903 92.5937582799852 270.85776047790995
129.3164811893894 260.44014734395387 392.0354216481339
183.20495530985627 85.33773734435464 205.47331584381266
274.2746772550254 106.94079439434354 228.41314588872254
360.1780033564349 144.31766967210652 361.5961249447197
255.55925485559285 172.78533378363343 77.04955900556592
142.44828784525137 148.78743814999604 391.80129223088477
336.4978383232604 114.04763805900235 334.9907242456994
380.9070332209187 197.64552057831713 137.83484470000056
351.24420984221365 214.667846668202 366.6892615092941
179.552083960214 92.58713732474645 167.92375639741843
362.2378455368343 120.82836903284485 280.06111529727167
361.17013046412336 122.47176153631125 279.7266671761443
179.81170948220225 94.26696037270476 168.81191911033991
351.380939284107 215.54711787641716 365.6024029683723
380.10846924647507 197.34029464933812 138.55711174259338
335.84354148592473 115.7863987340326 334.0029053963315
142.2536692944128 150.32832941137735 389.48201743659365
255.36091896216496 173.85582025197493 79.08650499748695
359.4442081781421 145.3753940842052 360.04552484918855
272.90049705472984 107.92921437801415 228.79905925370485
183.86278715120017 87.52363704617203 204.56322398247602
136.5387603858899 259.42696275506535 395.39777461521066
146.7914798056145 94.61909861380856 271.43565348097223
390.59512130350186 269.7130930660236 114.32772844586738
184.78126250831383 264.3243664641719 73.29173159273206
239.92025529005664 109.365946983641 128.88636398831065
224.38071588687953 89.64961664723954 323.70181299676096
365.5066638484108 147.68970016648248 147.3312000936227
382.77375797287135 235.3298782278787 348.53462127880084
129.94430998323898 124.07626913238083 162.27763887697313
154.04096574391303 116.8374508081038 355.91871274883914
93.29303463229112 222.38006324747425 130.19834221084778
281.1143197899763 237.72001022811938 416.8954317939955
372.19090512036814 130.82242423152607 261.2848408549849
424.44314647538266 158.20869955286713 175.3144759217415
281.95143287445666 110.47467143886855 369.2680240600042
118.79649411758612 115.86825766805946 220.43226646328696
81.01736119172502 280.16983453323337 140.42456577819283
393.54625170428676 204.31412040324102 332.5032324414851
243.5357414280627 209.08281650090038 425.2323203454746
172.76169349722392 119.41670743189849 367.2135073701169
256.58730006504885 171.60119319780168 86.7299200458398
255.44126367331697 174.95985478564728 84.36193638670191
166.96172865945235 120.30137164660849 361.60997252503955
246.34221021795483 211.5125991119523 423.8235209295145
390.5387387245211 205.26260607136467 334.23048939266965
83.45843402641638 278.7988804086853 141.80133017838602
120.30417269188254 116.7178833537524 220.27932055586282
281.4347885180687 112.197279942143 367.69344273357495
423.8987948014442 160.38609076594759 175.93074868469392
371.33674585134753 131.64757124394313 261.77443322840537
105.62670137308692 260.2386760483565 296.42865255623354
279.04477675013607 237.15754488498843 416.153636081734
94.3513559526101 224.7220579284006 131.0286060941186
155.14863762499425 118.34530842617983 355.12713296558684
131.03541808714178 125.39467267100198 163.67123707181764
381.5460460487906 233.96839545227354 347.6418590551609
364.8439627037061 149.31753160842513 147.9707936259759
225.20490394928197 91.46578884865353 322.9496012622406
239.25410772700835 111.28616384850007 129.8699348212162
184.49779326887506 264.48125250655755 73.94982435375931
389.00213609781315 269.9498507534664 114.87558879556053
147.21251706287273 96.57524757258139 271.9974470790021
142.0170997795945 258.71246936887303 397.8276805169501
184.53257197732847 89.76330953137546 203.62614943185216
271.5048862064292 108.93925274129401 229.19007478617718
358.702728638995 146.44135846690185 358.4863645045813
255.1773875775653 174.97105620216396 81.06148193461243
142.07628265743136 151.89951270596183 387.0941304414353
335.1774246757367 117.56416310824251 333.0054304180237
379.26524229943897 197.012758784674 139.30940930022268
351.4632568194941 215.496499866115 364.60188076112905
180.0777719465084 95.97831550619836 169.71941391526641
360.08594573324257 124.14281914961659 279.36211709646466
152.32837494759175 256.8252314867869 403.6112295345449
149.28728095631158 257.7388054931709 401.10918369573517
256.40993903312074 91.94074123747131 308.936496942821
367.06523423184655 286.94815061914295 95.15128564697284
358.98086670358254 125.84565427523704 278.8337576838709
180.349539761926 97.71944990175604 170.6448287969102
351.5551081044987 215.44077864989504 363.53232179187194
378.37629313789324 196.66322434696755 140.09353653984869
334.5008673511896 119.37851081359484 332.0017889180311
141.90677018342424 153.47598955593608 384.65231713830224
254.98438041857597 176.12766965408792 82.77792565560623
357.9539032766779 147.51522098113202 356.9189641170658
270.0893283188985 109.97381976612955 229.58187015710197
185.21151522963447 92.0496387892851 202.66447576589985
145.74089352163594 258.2881548651441 399.342509497113
147.63226206861518 98.55323630052986 272.55698326224694
387.3551572545516 270.1953752016662 115.44235241716352
184.19000715697 264.6577837396151 74.67638715005806
238.58470993577365 113.21418217819918 130.85651081914267
226.0316715355962 93.2906014753942 322.18811022354396
364.176594574593 150.96631906230442 148.61731649718988
380.29741423430494 232.5719996575742 346.71940863320486
132.1340805831487 126.72489680465151 165.07493408606413
156.2671458428734 119.87758354451775 354.3247954819991
95.39191701205078 227.04416966612936 131.89698846166382
276.9017082579883 236.5694153723877 415.3999879135522
106.98314642819965 253.60133652489674 289.05991559134014
370.47170173798935 132.62109641532834 262.19967078409087
423.3505975779693 162.59746689297938 176.5446105859573
280.9158835914303 113.93066940079761 366.107955850237
121.87274662080402 117.59343772318682 220.1080819797659
85.87338225299419 277.3654477509397 143.13269480863482
387.645379279217 206.3932139254321 335.78414093940347
249.1489544431344 214.02700099231757 422.3545618285851
113.1103761305654 225.75550866521388 261.0527713590168
162.78526114839147 121.49069789118414 357.13401804415867
355.2054819270646 129.4747020016985 277.9144483123042
160.20262546394386 122.87147672476432 353.85097848674803
111.69959296949598 231.66889432906876 266.27051431288606
412.61489667516423 173.5630707479388 169.58608360415346
251.95036249580377 216.70299024144376 420.77397063333797
384.9999797550424 207.83798402392455 336.98248893980355
88.14209593517896 275.87204837834327 144.3138183075458
123.50223605895219 118.49720459953842 219.9211297948699
280.3949372979451 115.67401592028013 364.5122452119294
422.78926312324177 164.88834526600317 177.10997374190518
369.5954888230548 133.66742300985914 262.46868147350557
108.04127303277623 248.34196813023362 283.10969957104805
274.6936609221871 235.95781658702177 414.6376733512354
96.34724149733795 229.28328018202092 132.84228171554054
157.38756088816214 121.42953784638463 353.51237026255325
133.24007490463498 128.0652570568332 166.48793902411495
379.03123041720016 231.14519205520577 345.76929783605584
363.5135886635674 152.6273501194331 149.25989085663088
226.86051134212653 95.1236497994436 321.4180531403666
237.91198885635444 115.14811372668804 131.8467186991134
183.85704716772472 264.8561856496144 75.47724464382945
385.65613574707663 270.4484959459273 116.02664017829399
148.05096774317406 100.55025074001504 273.1141618450043
147.7019350950364 258.1472870864097 399.9560267964232
185.8969494436678 94.37596212235191 201.68106376896466
268.6580811919073 111.05337349726008 229.9505074113649
357.19804734516487 148.59665868640982 355.3436612282714
254.72567715483964 177.31494874192504 83.66953170674836
141.7269560000554 155.01386987648772 382.17959721561255
333.8152044672117 121.2266387898399 330.9948469744286
377.44091420109925 196.29227953918152 140.9111829594726
351.6562501447463 215.37906584164432 362.39107828316935
180.6263397250998 99.48862016273715 171.58680755081747
357.97459726446687 127.666650110054 278.0736737540442
371.5647203842829 281.817515620477 102.46784989096422
247.49659561753253 94.57204417206054 312.3441816986599
240.3974465995564 97.31846699780294 314.91793234539074
374.7651973548069 277.6792563242174 108.63212701336619
356.99924893487315 129.40265903076073 277.0037556818734
180.907565764587 101.2841115915307 172.54407108378965
351.76629075169257 215.31041248662686 361.1758709222966
376.45879513032753 195.9007906045611 141.76386504269715
333.1216721815182 123.10558709080622 329.98685507215464
141.5024203597853 156.4329179759627 379.7157570622785
254.46156121767032 178.5680514583748 84.58392185550062
356.435415522883 149.685391251681 353.7609444522447
267.23170754731615 112.30123180733145 230.15719619678433
186.58555339925968 96.73543896283502 200.6799175490777
147.89313294381728 258.28394090758525 399.6803675373333
148.46888161145867 102.56399662934243 273.66897241068045
383.90871417978565 270.70740939883586 116.6274642712749
183.49845146872147 265.0787263257114 76.35829676479196
237.23482702142738 117.08028380371691 132.84421774237202
227.68942555490486 96.9669700725764 320.6407863239201
362.919452515441 154.23882096992352 149.81295208173304
377.75035793193524 229.69203315739847 344.7936510172687
134.35379321745677 129.41223387589892 167.9076724107687
158.46330543631356 122.97647509119649 352.6852855286016
97.02498382349704 231.25355987860956 133.97754266917215
272.4307288789334 235.32635448709996 413.8690848293503
108.80890316628981 244.44586150016465 278.59375310753234
368.66915004739917 134.63518975443893 262.6481387963469
422.1765965222894 167.44393726610025 177.44997197440546
279.87214422194234 117.42656467775949 362.90695186103085
125.19190584149607 119.43122389199648 219.72127634983863
90.04935636286447 274.3225528751284 145.1553524208769
382.86812453119524 209.8455339371379 337.4789436494862
254.74205873333207 219.69079613632715 418.98139670356164
416.89025783847046 172.7227505650253 173.83501715796612
110.60723423108996 236.16701994630725 270.11143306319747
109.84350583129408 239.23122793932757 272.5974044538297
419.788144542458 172.83316265030328 176.98911178840044
257.52566340541506 223.28391529801195 416.78137066627505
380.579184162462 211.88397219795414 337.9948059884458
91.19071071831723 272.7320046614146 145.30329399380943
126.94019424550633 120.39723459409012 219.51143778083826
279.3476771499606 119.18762458280762 361.2926770337771
421.6186828365485 169.93578629619154 177.8262102835653
367.7212113180338 135.6163506475926 262.8346673680987
109.29118781904394 241.9032718202103 275.5223030345842
270.12782833853703 234.68210412230027 413.09579193206145
97.72693036951341 233.25076142630786 135.1150073379097
159.18649742584495 124.35711792622041 351.8069133752944
135.47845544266755 130.75284295038796 169.32284588076521
376.4571771209461 228.21618852162942 343.79465736923663
362.3239485562637 155.8698797942826 150.36954346977188
228.50620568614062 98.83882468466294 319.86217476457557
236.54713943552863 118.97436350512703 133.86732241641255
183.11437145491132 265.3275638297703 77.32537069513909
382.12207579812633 270.9678777200352 117.24539916168537
148.8862263751316 104.59257914341765 274.2214612678719
148.12178701999252 258.44513423908734 399.3556808360056
187.27123503866093 99.1190869261808 199.6683595395172
265.78551788658086 113.57050311933192 230.3682131608768
355.6659803128303 150.78131865465582 352.17224445961114
254.19266341977763 179.8860026188824 85.52249858244471
141.16829658975706 157.58276082008194 377.3343862654091
332.4213787701276 125.0124113968847 328.9795089574003
375.43005304483313 195.48988822460782 142.65286348256075
351.8846914581371 215.23382942686624 359.88486703816824
181.1927091145881 103.10425415574504 173.51547210985612
356.5773879789336 130.78154512530568 275.95662993031857
376.7682590733875 274.5489151987288 113.55129463237377
235.1298406212236 99.98331479789944 316.69243609089216
231.6951831612396 102.43877981664362 317.6946325271208
377.64590936821236 272.43426882028774 117.16592658375852
356.1541605402125 132.20612757560494 274.8726726367859
181.4815020390562 104.94743604404901 174.50022625332582
352.01077886303256 215.14831315332918 358.516749066432
374.35524353308347 195.0609387473871 143.5791665530018
331.71529549057794 126.94429968957577 327.9740358574279
140.60214021448795 158.177527473797 375.17709947896174
253.9197093512073 181.26712038673287 86.48653274614671
354.8881337203684 151.88530749077572 350.5846203100086
264.3205583714461 114.86038386001844 230.58318921246155
187.93914929811936 101.50989720951821 198.6635185706355
148.39500930399683 258.63473073160776 398.97443103965657
149.30319372070295 106.63441435142308 274.7717086390189
380.32608856361855 271.2162764753673 117.88682260823914
182.70592481449322 265.6044736585195 78.3840159254196
235.8189814527237 120.65247549061895 135.00537440029268
298.1454252301719 245.8828755432282 65.2112847428615
229.22959364454147 100.86870956296478 319.1186437839134
361.7272954288145 157.51929269045687 150.9298818814401
375.15354011758893 226.72127845398785 342.7747715047165
136.63025156932326 132.0271140849073 170.6793319824892
159.71012766515676 125.87292606862601 351.0388711487527
98.4499198436 235.27029831855393 136.25403205872863
267.81488618175496 234.04182358598877 412.31843846412073
109.492135565892 240.7065838407849 273.9032296888967
366.752078418221 136.6109136056042 263.02797595436795
421.21937088154453 172.19914624114494 178.28480592062428
278.8216896143624 120.95656312614 359.6699834982013
128.74453051692493 121.39669227840565 219.29445516661121
92.40213446242787 271.05595823553745 145.47595048469353
378.1663357744409 213.92032363631543 338.49455970649
260.32148133485316 228.0569081812237 413.7925379705475
193.74329173328044 104.42128909512219 192.98169794118766
190.55706406650543 105.99325986768459 195.49377796656069
261.9786814234366 231.34620619612267 411.51236524280887
375.66752972359245 215.9101407338953 338.92084171839787
102.1754908269296 209.28706620319295 346.91216297068223
93.68066893767151 269.3043374386383 145.6749072448739
130.6007448726559 122.43096687326297 219.07280755984434
278.29431816845283 122.73280148081608 358.0393971622617
421.28462527887893 173.74455015486325 178.96231705408684
365.76221233920484 137.61894049173958 263.2277530923259
109.41524654298807 240.84912569905106 273.7433582384966
265.56726189785167 233.4501335939599 411.53661662689996
99.19125763097173 237.30852608704777 137.3942688396746
160.23596848870625 127.41024158911254 350.2598610504001
137.88479218606702 132.94329840310206 171.7118356707057
373.8403815243366 225.21254270238097 341.737948469208
361.12968646815915 159.1859121246797 151.49409785470806
229.86820602631863 102.85496614624789 318.41553686415375
302.1802341611783 240.71357497508453 70.64023766917464
235.08939415757555 122.35432042700303 136.14113101206317
182.2757977550877 265.91037173040456 79.53921657065013
378.63053324294856 271.4029323386366 118.57959743945364
149.71994550958792 108.68816671836582 275.3198087803111
148.7210598134277 258.85695290305 398.52845554139697
188.54847536573502 103.865147935797 197.71133326866976
262.83785520447253 116.17005967753623 230.80176952466434
354.09109823255216 153.00366630511118 349.03853606668673
253.64341610647068 182.70907645864787 87.47708149822358
140.05498677211585 158.81375599932784 372.97647450479843
331.00426292416074 128.89863990083825 326.971287156406
373.2353501855265 194.61550173036716 144.54342520258945
352.1437652939173 215.05287651964045 357.0707665550085
181.77462216201312 106.81212795197185 175.49901281701065
355.77034387923925 133.69980765685227 273.7491860502073
355.635210250925 135.3744464824912 272.5631862858525
182.07713428513 108.69702187630621 176.51931436766816
352.28278041864036 214.94658414248252 355.54676357313235
372.0717528820935 194.15527709215704 145.54592444237943
330.28901690386056 130.87304504379716 325.9718312204904
139.555275281144 159.55559887694892 370.7116333420004
253.36418581509895 184.20903164072814 88.49494603236963
59.12225891753456 283.0891511303765 249.98779301822347
353.2105890294385 154.17358427755156 347.77253667282235
261.3384088454656 117.49870812229098 231.02361510838261
188.98246103207114 106.0630436407766 196.94207529270892
149.10940298692958 259.11630391260246 398.0091467619143
150.13662529273938 110.75272429771677 275.8658252853004
377.45654707188595 271.33987012322746 119.43127027870517
181.8293164628127 266.2444849942397 80.79497124165859
234.35877308702462 124.076591628602 137.27442504341568
305.014415283504 236.93676157794164 75.2821249415423
230.08921565051025 104.58685446237745 317.9475598340803
360.53128396805374 160.86866503310864 152.0622538447794
372.5157818657841 223.70481842018404 340.6958136165631
139.1691321980447 133.8815976960642 172.76959909074608
160.76371337144133 128.968113004614 349.47063192360747
99.94866392161568 239.36250906483147 138.53553990213152
263.5959363682892 233.03232711709128 410.7493859446907
109.32801206451626 241.01071144449588 273.5615856220759
364.75233650741546 138.64114781564285 263.43365293020827
421.3683037832706 175.33399699480296 179.69285366285885
277.76568440876486 124.51580989545323 356.4014088589416
132.5012141528853 123.5020026821049 218.84803392391115
95.02227632054547 267.48785824799035 145.90065080036644
110.83385859679646 199.07710146511647 350.3420368884477
373.1333861584644 217.78068005151326 339.1758871495919
370.6447643542253 219.39945083957278 339.0863300130687
118.65097006361866 190.40038547298116 352.80163449729
96.4226843998012 265.6187644583294 146.1529062221465
134.4292615934586 124.61422612972285 218.61933977744584
277.23589676385984 126.30510340010186 354.75647623386925
421.4923587219439 176.95805960160598 180.54325148062838
363.7256624661629 139.68544765190367 263.64509448507687
109.22909240623065 241.1937760505383 273.3549554691562
262.51475987906014 233.14764464618108 409.95976395446394
100.72023090824848 241.42977342898902 139.67776415318792
161.29240841904547 130.54423476851989 348.671007151033
140.4786478031139 134.84274136821057 173.85280464050552
371.16617888765626 222.26130244574114 339.6977609726243
359.9321811823828 162.5665223399716 152.63436900937168
230.30447711871585 106.3430894477369 317.4727600721155
306.71356663915753 234.5110648263432 78.98263490437829
233.62736764183072 125.81658164077831 138.40527841795506
181.37641157848105 266.60290818220625 82.15364009420959
376.25253321144316 271.2685692198677 120.30961970258893
150.55342253949232 112.82733056344449 276.40954971042146
149.57069123455713 259.4174355457163 397.4077422253013
188.90311216392973 107.74151284878783 196.73265118807214
259.82319143057975 118.84548699386909 231.248398466182
352.32318745955547 155.35194587320814 346.4993489474588
67.82325921990078 285.2803839177432 242.00291067636834
253.0810500751357 185.76393817580762 89.54075022877366
172.6848717257249 182.5823905230207 128.22227028770334
139.1861318716861 160.59059542475802 368.3174303769469
329.5702770988656 132.86532164090892 324.9760684214211
370.86617743789145 193.68204661634567 146.58657356280943
352.42691935002574 214.8285950166826 353.94516885109357
182.41528025085478 110.60198773670194 177.60139139864646
355.62560916442743 137.12886548564273 271.2286432901464
356.16287905163176 139.0494343732342 269.40552312195524
316.17065796163837 135.12358329486338 318.3234067854208
182.91836002974267 112.53426134923026 178.94476916234146
352.57532602777866 214.69822389803673 352.2669207108158
369.6206308465917 193.19761569804416 147.66491432293893
328.84912618076726 134.87326220710062 323.98450421932813
139.18978906049705 162.46609252475378 365.5971763372209
175.87691704959838 177.3196417253662 126.6110547270997
252.78777451685505 187.3714025207948 90.6154321682591
75.15103993673384 287.0463980981273 235.40851641651318
351.4291541922596 156.53843255303377 345.2191889345548
258.2931564519166 120.20945404076137 231.47577376460617
188.79270632322164 109.510658596698 196.69989983952053
150.11663696352824 259.76495381423916 396.71573544871904
150.97099091127538 114.91271929750089 276.9489168216414
375.0187549732572 271.18912326347396 121.21414526730072
180.93529010657053 266.9760805907342 83.61485303114856
232.89534970304004 127.57207022362125 139.53380171674016
307.3266064017424 233.40296729630498 81.64185052902472
230.51472563395515 108.12327042146262 316.9910157027599
359.33199704931275 164.27823526816772 153.2105392177919
369.7274247376561 221.18287797649606 338.97758123216107
141.80435788555977 135.82840250645097 174.96138989855174
161.8139425977977 132.12362901059234 347.8520546996834
101.50443227197219 243.50786447633723 140.8209146751781
261.94607911420235 233.45759493392094 409.1521258373062
109.11699774392551 241.40102418946813 273.12013880971404
362.7116584208909 140.83773496761864 263.8590783714311
421.7505880595249 178.57445193064189 181.77744395158174
276.705052070654 128.10023783132667 353.10502567722307
136.34258648382942 125.77991389421197 218.37993235004646
97.8787614992003 263.71426951510466 146.43134814565303
125.45304649534567 183.2533044282531 354.46755660241587
131.15493844406544 177.62454507108544 355.4375668191292
97.65695228971371 293.40997466192687 213.61310361087442
99.39127454310277 261.80739962063734 146.7372119556907
138.12461581400515 127.03425867213838 218.1070797288313
276.1732369595383 129.90080617246312 351.44745425542743
422.0808925302498 180.38559667260435 183.10620071363235
361.67791677270077 142.0108051367014 263.982310008383
108.9900826664982 241.6354437895185 272.8534009840822
261.3680021492393 233.77973376576114 408.3242750484489
102.30031702330511 245.59301132544496 141.96498210288266
162.24897630210853 133.56707519544386 346.92019282829546
143.11226494285586 136.8485864810853 176.09670340132215
368.3489420793931 220.5142400517719 338.337465506947
358.7255261310202 165.99955344376153 153.79209968602822
230.7208312358195 109.92668882082684 316.5021806998201
306.89551486701043 233.58230228678943 83.18200076725977
232.1629314786387 129.34124082705648 140.66007088998876
180.53937653499852 267.344347170556 85.17355594567498
373.7555291322027 271.10168687775075 122.14426355992425
151.39328987374304 117.01910098152345 277.469356870449
150.75973174007328 260.16316096690196 395.92540307257246
188.67290450067307 111.32967602361697 196.66868014061424
256.74930780335336 121.58915217751088 231.7052261465806
350.5287414727467 157.7327354221622 343.93226961604637
81.07492627962957 288.4110842919 230.18087613378395
252.4581367280865 189.03273783460287 91.72229619177747
178.21537662583765 173.56468333132162 125.99881838060291
139.2710782277459 164.48517351477972 362.9999179677474
328.1288073186257 136.8936210441855 322.99886574928576
368.33732568689913 192.70376367935944 148.7801387737623
352.7273707323981 214.55505987480015 350.51325086371133
183.37353934711538 114.57968852684816 180.32121053641768
321.49060925414864 137.84592285912112 319.77097803966217
357.4228255941608 141.3309548205265 267.28134991851164
358.4023725142234 143.56879423709094 265.4145615120509
324.964672039909 140.40971094865316 320.46518547043524
183.64007151316395 117.02251679897108 181.79950098447782
352.8830978856253 214.399258425667 348.68510665023973
367.01858865587735 192.20222319796267 149.93108171395744
327.42347551719024 138.91701469824878 322.0274779777899
139.48024166279535 166.418177227981 360.4351643538227
179.6562772926145 171.36512001817056 126.26699906391467
251.98985720803284 190.76482861720737 92.87521063390807
85.57901957604172 289.38713762898936 226.30717536516272
349.6221931535435 158.93455529025195 342.6388005902818
255.1930729471554 122.98055638022251 231.93533564800268
188.54633357366808 113.19700461911313 196.63885849453928
151.51277870488823 260.6157452418253 395.03041612154
151.8470372625455 119.22133001704411 277.87201766139765
372.46322595446554 271.00647063024314 123.09931318722779
180.25051141739573 267.6701010273284 86.81633098728246
231.4308748547016 131.12267366019336 141.7836799486567
306.41770693606696 233.76321543335968 84.95790252496117
230.9243460263403 111.75126463820189 316.0059315885941
358.0561455798678 167.69340206819052 154.39397816657817
366.94172957414816 219.83976608871623 337.68299362273603
144.22059187182492 137.96392235336256 177.27020548227148
162.68559202449913 135.02813240496062 345.97958804943613
103.10836570500248 247.67517797090449 143.10985256811517
260.7804538533517 234.11418995637842 407.475958068038
108.84654715137286 241.9003131822543 272.5505728596383
360.63638036317843 143.19787579522745 264.10208238582385
422.6123623077349 182.6257529092141 184.62257494397855
275.64052906883484 131.7064351959063 349.78413160978295
139.44199539243795 128.47767911713638 217.7349171428503
100.97134875317076 259.9789152766718 147.0774951688143
226.23595621308672 116.57569279058764 318.202938993111
93.93901789097677 291.83225397522745 218.07765093545478
135.70254855619146 173.50301387544653 355.7783738009458
139.05596043262153 170.87831868319 355.54179654948365
91.55226028317938 290.71128859969235 221.12116239244173
253.03785012665767 127.19275838275001 233.154534735945
229.78393972438886 116.20075933972844 315.8838420484275
102.6565322992163 258.4502454059698 147.4767485914688
140.78462436595686 129.952471407216 217.3600248694932
275.1069981076161 133.51678238112447 348.1154017997741
422.96267247090196 185.24527090835713 186.38570346841067
359.677071074194 144.42474365185782 264.1334181158145
108.68444866662587 242.1991982444379 272.20703105926486
260.18336900735363 234.46108121043434 406.6069379774061
103.933771976387 249.71878968461772 144.25463855308607
163.11767520512862 136.50852993164804 345.0425861292571
145.3420743292249 139.09819028906566 178.4641003254734
365.5066754440674 219.15895656020086 337.01438540285676
357.3856665692371 169.39796556548563 154.99945035113169
231.13076906911883 113.58726035574668 315.5008510515296
305.8964616009525 233.93819691715046 86.96602697062745
230.70337067603873 132.91566424314843 142.9012579897359
180.18410862411136 267.8838064668552 88.51424047873773
371.1422691209222 270.903734911222 124.07856112067081
152.30071689169347 121.43014530357172 278.2722305186618
152.3882274318135 261.1254461973826 394.02646872684767
188.41754494436728 115.10879841150123 196.6157956454012
253.62824865064408 124.36698147918922 232.16019235674244
348.7097448109445 160.14360265243502 341.3389875935897
88.65258700782141 289.9832546200623 223.77855605265978
250.9903633368025 192.64760333730757 94.13130410230025
180.16882941822985 170.75249327451579 127.32245435657101
139.8302964276983 168.135843006332 358.0248902104817
326.8010655681314 140.90230431292596 321.11192393758506
365.6667061500946 191.69477028178142 151.1160321002192
353.0444607454866 214.23234808407543 346.7815639996616
184.05006146705276 119.39749907603172 183.58934996912822
184.87485368081087 121.56374676935587 186.26976995031563
353.21884636478205 214.0595422149993 344.7953268801437
364.2834645684568 191.18380695054913 152.33163003716567
326.59363359218344 142.64758395715913 320.4598353280604
140.36450461480362 169.39772993617154 355.9926323558529
180.75530905969475 170.17109318173422 128.46201523732694
249.9689702569843 194.5705174524409 95.41751856135807
90.28719789655459 290.206339923473 222.58793951564851
347.791624245124 161.35959739872774 340.033030831648
252.07107839371804 125.66950606244431 232.35192657412114
188.30015625593697 117.05249409719244 196.6309762287565
153.3973413028479 261.69373943334756 392.91182596865383
152.75440675837365 123.64496233511105 278.67018223594886
369.7931353346827 270.7937829888844 125.08121030757378
180.5570983928102 267.8590807793409 90.20868265254104
230.00491262521786 134.722186612371 143.99185879296869
305.33401105819195 234.09982005878226 89.19037401540623
231.36870508898787 115.38009043173942 314.97910646750427
356.71416229604023 171.1126271766428 155.60839268768206
364.04486966134806 218.4713411724192 336.33185680019824
146.4745887428889 140.25043960511397 179.67691595333235
163.47876880949474 138.03379281500585 344.235349371574
104.79864971701174 251.58686855632192 145.39417877529246
259.57669297996273 234.82051340942166 405.71699592432464
108.50173295185381 242.5359346144791 271.81769448278004
358.84731344801025 145.64000025416607 264.0829942634821
422.9637255336976 188.44301728909286 188.54467244623964
274.5727067833014 135.33153304525962 346.4415850820364
142.1508727541594 131.45743200509807 216.98344340723878
104.40148240089128 256.84321174950355 147.80566677556467
106.30661621285583 255.03901119343996 147.8495379626966
145.3404553676018 131.53970073953096 288.50005190926134
143.53913613539115 132.99126164531728 216.6060941724252
274.03771160503044 137.15039748686064 344.76297964623285
422.31641204970157 192.60644937244626 191.3870795917241
358.0105139965721 146.87258794164953 264.03745224100953
108.29629585598533 242.91458824428113 271.3770483561666
258.9603823522087 235.1925799143547 404.80593257248756
105.7870643158355 252.741645324234 146.50188871632432
163.84566520983284 139.5786054560606 343.41332912198766
147.6169225306855 141.42092045505655 180.90609292982165
362.55810769445316 217.77661278498752 335.6352531167734
356.04169274613196 172.83681088989619 156.22067733357636
231.8020410829481 116.81019343431014 314.39569704832405
304.7288567689528 234.24154511750004 91.6006882939351
229.479630280827 136.55738304218747 144.9304715021238
180.91983840338304 267.8481108061321 91.98536402202592
368.41635340945083 270.6769535170824 126.10640838395379
153.2082567706038 125.86506684053535 279.06588962770206
154.54927988229556 262.32059174585436 391.68768023983864
188.25096315568058 118.97504195016032 196.84077975619104
250.60230963782527 126.503341740817 232.37550075507764
346.86805443584007 162.58226693044264 338.7211149537621
90.47548463562279 290.06248171696313 222.72905077162764
248.92828218038716 196.52811969949678 96.73179739827167
181.44520891380333 169.68970642512178 129.66379617475633
141.18257370064694 169.74043432985385 354.77196635270826
326.38844262232703 144.42697569649835 319.8020440378537
362.8682330568548 190.67526870727315 153.56732474625747
353.42925467680834 213.89642329909506 342.6997154094708
186.9031633908979 123.131170740683 191.52441993503493
187.9903217617552 123.28034796005078 195.728922164806
353.7437905064088 213.78829284508535 340.41067116867515
361.4091865860778 190.19269173165608 154.77835788848145
326.1838553541776 146.23960231917434 319.1380415005814
142.05361345145474 170.07925626050783 353.50931398345494
182.28915578434427 169.43583418454435 130.88227929395876
247.87069398292752 198.51559461026054 98.07198909805362
90.69174452997186 289.89792273687203 222.8900241373593
345.9392731791365 163.8113337271802 337.40334110663275
249.15997481381933 127.38971490056261 232.32477234763556
188.35177032577803 120.83219122879072 197.19400260235238
155.85022409456815 263.00432631852544 390.3582304417581
153.66288621139051 128.0886412122106 279.4584863335873
367.0125026679289 270.55361278002755 127.15325725733874
181.27471430717912 267.8513194210859 93.84042144023357
228.9534487161854 138.40256260385127 145.8695681606709
304.07199602067544 234.35813898053703 94.1488801139444
232.24480456821078 118.27338527432383 313.7960385686993
355.36830514122676 174.5699747341889 156.83617737320628
361.0524073369874 217.0754222352106 334.92160270207455
148.77229582038456 142.61878659955252 182.14230209122067
164.21816240844285 141.14126777745852 342.5775669832336
106.97265549240348 253.2255987195864 147.3404094469183
258.3344054793209 235.57736089316967 403.8735695172134
108.06609683154086 243.33938490483564 270.8792132573161
357.26944286162075 148.12335724342037 264.06747126914155
420.4825329479623 198.49374020903306 195.4722004359336
273.5020635595104 138.97310740858092 343.07986343506565
144.94786032787113 134.55260298083834 216.2287699058884
149.9001456656417 131.82483170083592 284.343175355526
153.2195510147156 132.79981946518873 281.59547971163045
146.37556667425008 136.14009394450596 215.8521067550544
272.96580861308775 140.79940876812378 341.3924965988973
416.4797923419278 207.60105743707447 201.90317802801653
356.5160014974168 149.39195643275224 264.0990197616628
107.80935894599757 243.81459510560614 270.318086636715
257.69874298021455 235.9749226817888 402.9197506481891
108.11068944879824 253.4279802638541 148.02075104043638
164.59603111153072 142.7202555785111 341.7291214683824
149.9725666567802 143.91410416300312 183.33080465403162
359.56217891037534 216.37472779945523 334.16872219167874
354.69401263231924 176.31156098279666 157.4547979963865
232.69614943842058 119.77034119849542 313.18064000632864
303.3412977345445 234.4455931048991 96.76029889455442
228.42634864672533 140.25693043923707 146.80917844382617
181.6241312116879 267.8690370048234 95.76979187253353
365.582210531961 270.4241469507099 128.22082327552698
154.1216589472344 130.30698686860043 279.8420195943152
157.30268196556963 263.7416003814386 388.9304689438922
188.46400147893837 122.67040766474626 197.5773801210414
247.67271089297688 128.3044948428007 232.2721266231152
345.00566693343745 165.04643180598922 336.0792583681936
90.94005925858399 289.709843804951 223.07342741411716
246.79844965682295 200.52869054353346 99.43596669334823
183.37365632621004 169.64660381680395 132.03015061071824
142.977946365004 170.41363039795158 352.20550623289745
325.97826791648856 148.08425507267032 318.4674305234716
359.8424273677558 189.8451070891017 155.75476644053236
354.3611892373175 213.86616675122323 337.6752253906946
355.8589431115278 214.50878134223493 333.7429014528256
358.2478355312313 189.49026572372844 156.7521771598659
325.77017843180346 149.95943269188948 317.7899423311661
143.9555394126851 170.74312295262976 350.86151796267313
184.50488569121742 169.86836982163226 133.22981669940006
245.71384305706988 202.56353292984792 100.8217491612074
91.22505581503735 289.495108098983 223.28207470298673
344.0686873367055 166.2865428624404 334.7446247594609
246.1430078737551 129.24971252978932 232.21869994995959
188.6266769775748 124.21721920760037 198.15120256961396
158.90506132689325 264.5274348034487 387.41376840966683
154.60376402323993 132.46997365752557 280.18072976572495
364.1261492511948 270.2889546170495 129.30814766541226
181.9704053260082 267.90148817572316 97.76927355876809
227.89826267075804 142.11977375649047 147.7493753813865
302.4923193511842 234.50061812838794 99.31409124820283
233.15511608459536 121.30137418538224 312.550173572034
354.0185232700696 178.0604357989181 158.07681874073884
358.31594353282185 215.72445810987682 333.22516067360993
151.17887849488073 145.22566697029885 184.5336845841046
164.97903043914138 144.3142129698834 340.86903039634603
109.27680078873537 253.6381199086481 148.71764687256172
257.0533881472323 236.3853171859218 401.94434343922336
107.5249154147534 244.34435373613334 269.68760124049714
355.7502003212705 150.678107893599 264.1318942087225
413.0627916017292 214.81251500169375 208.08390585250814
272.4289878621691 142.62903981778098 339.701126871
147.82089702922565 137.75248898117917 215.4764708864625
149.28275564772122 139.38905713112513 215.10150050437298
271.89163676701924 144.46164983231043 338.00600729089837
410.24932066844514 220.1507949919096 213.9083226514647
354.971070014824 151.9811385195863 264.1623977144684
107.21280760833724 244.93238047320054 268.9821741550605
256.398347278733 236.80858131988992 400.94724014438754
110.47058000915524 253.85603327779515 149.4308570137253
165.36691872048593 145.9219376249736 339.9982857761778
152.39016631341403 146.5519387217019 185.749609728263
357.07995266875065 215.0794600792094 332.2599469411317
353.3380594964311 179.80828556099507 158.70688067403955
233.6206851796212 122.86640624901689 311.9054439165699
301.44237686988106 234.51994719893978 101.60239703278897
227.36877799691393 143.99041633608795 148.690527082791
182.31568185774066 267.9487825299998 99.83458914508797
362.64503178631054 270.1484397943794 130.414256917548
155.21950132421563 134.27918983825262 280.26363596061526
160.6514742778772 265.3551510644714 385.8194824030666
188.79692869363262 125.79880160165325 198.7385183793727
244.5739193690774 130.22677106133096 232.1656216744947
343.1371314988683 167.52618798149777 333.36900816346446
91.55195279311388 289.25025243197706 223.51901742801078
244.61979488291155 204.6161578403869 102.22768291151596
185.68155928148613 170.10372994799468 134.4821881124922
144.98600958775683 171.0674381869502 349.47844762637067
325.5582436887502 151.86339978489676 317.10544281990326
356.61381477888216 189.09918268111656 157.75560683292744
354.86195792444124 188.50112906167033 158.68532092971665
325.3413198540593 153.79425922948093 316.4139287288186
146.0686397040222 171.38641911032522 348.05749607048705
186.9019217421103 170.35517264630533 135.78764039606892
243.52149842700481 206.6812444514621 103.6528336718829
91.926597728666 288.9714901506884 223.7875208458547
342.2701783066239 168.72971076236485 331.7408590574846
242.96878258706025 131.23636670960002 232.1141239019996
188.97352397159833 127.4144827247827 199.33860528725106
162.53155562292065 266.21596320269236 384.16089915047206
155.84735925206738 136.1140796924964 280.34280900422885
361.1396069281103 270.00300559812183 131.53817280689128
182.66187968876477 268.0109095601142 101.96144760004874
226.83508853161825 145.86799749737133 149.6350453083367
300.04231970429885 234.4999024185955 103.24933216220151
234.09183299460787 124.46496609182947 311.2473486749691
352.60822706306794 181.46145852758102 159.40063486866467
356.07983444812976 214.55106042287943 331.2280468567924
153.60558011786873 147.8915047735797 186.97734520506873
165.75946031025822 147.54236327731135 339.11781877613936
111.69156330270987 254.08175094990622 150.16012816850247
255.73363998202 237.24473642564064 399.92835887937787
106.87532073898011 245.58154114142704 268.1974726274937
354.1608441138493 153.29460607551337 264.1287003156604
408.0530205304695 223.63953056116492 219.28744668794684
271.35378187636354 146.29648211941375 336.30746506584717
150.76086129931528 141.05108361289317 214.7242934773346
275.1785971725971 170.3074899538163 340.4480132530033
273.0263375760575 163.42968179961466 336.59111314247565
152.2579848997648 142.74774106801337 214.33229375055242
270.815431325142 148.13112166066375 334.6061809124173
404.2038609435723 228.09674309400705 227.64883153988706
353.33896860860347 154.6240176531863 264.09586141625397
106.51879156470788 246.2931385734199 267.3317188864422
255.05929970874533 237.69378735810554 398.88764456617315
112.93923097386985 254.31531643247868 150.90519199320389
166.15642947631412 149.17454214456373 338.22849218855015
154.82444630317016 149.24309334002345 188.21567474108718
355.06489237258614 214.01474289990446 330.1753624792032
351.81112671715084 183.07459048662415 160.0071856315232
234.56757765726206 126.09620481232604 310.5768309299435
298.6145851741321 234.4648456658879 104.98748085430691
226.27790385800077 147.7501367551725 150.5994622743621
183.01066160112512 268.0877355270396 104.14560020482176
359.6106537882874 269.85304870039323 132.67892177489549
156.48626488750318 137.97408094202603 280.42002348407186
164.52983660683014 267.0978105460486 382.4540496855843
189.14878389261713 129.06209635177336 199.95668574112347
241.33062568528865 132.27839930890337 232.06633183204434
341.3998068759153 169.93696023614572 330.10887220336656
92.35548861649939 288.6547304962906 224.09102159813216
242.43115916703988 208.74847152369756 105.09798141255887
188.16381111134652 170.62498400241236 137.14599721860623
147.20240372206027 171.700042392222 346.59994541318224
325.11849046905184 155.75004391045496 315.7155174479665
353.0753043313845 187.90362163603137 159.64489389947218
351.20890993013535 187.3284196805672 160.67145234465062
324.889112634847 157.72890150454754 315.0104437157709
148.38600110787584 172.00840765236038 345.1071388571987
189.4647435457327 170.91516725877574 138.55654457919263
241.38173637897683 210.79179050790162 106.56825120857675
92.8457706792681 288.29561995262407 224.43306179691479
340.52617621131463 171.1477999623339 328.4732181013408
239.66012109232395 133.35154373341246 232.02925375495883
189.26594450613484 130.72990435024957 200.6448626711999
166.6238661002624 267.98272185922247 380.7201744305456
157.13682172602543 139.8551592531535 280.4993775206272
358.05897583764164 269.6989546420685 133.83554344612165
183.3634288249655 268.1789949956981 106.38288305047251
225.56446814340046 149.62463697065988 151.6978178964779
297.16461252184047 234.41679314824145 106.80708506056801
235.04698737371524 127.75887250835758 309.8947988592984
350.9995871592051 184.66398575108153 160.620214238024
354.0354999461288 213.47043062811713 329.10236800587114
156.04624342411304 150.6056558015126 189.46292994822733
166.5576122857414 150.81762868719326 337.3310981102564
114.21300720726678 254.55678287140876 151.66576338835242
254.3753758287269 238.15571968014532 397.82506972196694
106.1567941219417 247.06571767652534 266.38793519389094
352.50596198393623 155.969025200157 264.06389843869
400.5174305063434 231.79175395371993 234.1683239320655
270.27655449909025 149.95653158148062 332.90433244503834
153.78906501807597 144.51924437727604 213.87543322913154
271.1860986906513 158.4811890576803 333.1589307214921
269.71666760081916 155.41539170926558 330.29062739567127
155.41832971883062 146.52839629220554 213.15705898455755
269.73707195319435 151.7373628884803 331.21027862064625
397.1382336405047 234.69093986436644 238.87887459410055
351.6673896040572 157.33021524525267 264.03279524530166
105.81580941809413 247.8929613876783 265.37786729441984
253.6819436482482 238.63048739437636 396.74063512491915
115.51226133524402 254.80620881396388 152.4415390004658
166.96280721073933 152.4708652917557 336.42635903676955
157.2706193912187 151.97881706563203 190.7142523000364
352.9920394575168 212.91807407447965 328.00958561208927
350.02608719713686 185.83614330177156 161.2842610652637
235.52898876433102 129.45088964829085 309.20181710695823
295.6978342035514 234.35874788404243 108.69848827208385
224.8505848358796 151.50373970153947 152.79564008752183
183.72134225471297 268.28425694635456 108.66923011025402
356.48539469476947 269.54109401697013 135.00709809934492
157.81143596349318 141.7316859092608 280.6009680568798
168.77965704387987 268.8414160452737 378.99130110091556
189.3874332015683 132.42522837453862 201.33955686993858
237.9463721089833 134.4509563723327 232.03408944795265
339.6495219086334 172.36217697879195 326.8341655413428
93.40519755192666 287.88961130538104 224.81719581785086
240.46692990999315 212.73757470233727 108.08008988291364
190.8020105162609 171.22738108014045 140.01807592398936
149.61790150490552 172.31172076423357 343.5804621707739
324.65306022307897 159.72984785365693 314.2991254214176
324.41220462880256 161.75694061024527 313.5826347932035
150.89640695965804 172.61026851510576 342.0213276093449
192.17278011876533 171.56289819229238 141.52896806228347
239.95776718569172 214.36978575077646 109.67963126175475
94.0420447902544 287.4320654524647 225.2468678065345
338.7705653636055 173.5804932353193 325.1925981659181
236.12246597187345 135.55691375776868 232.22930635654296
189.51389002209268 134.14645080934537 202.0377694502261
170.94182282304124 269.6226801202707 377.3217514226319
158.6018886036138 143.4318135597441 280.85375246833814
354.89074390307326 269.3798194688265 136.1926729114943
184.08538481930086 268.40281013024725 111.00061515695488
224.13620848252205 153.3869692031902 153.89305658051555
294.22176124666225 234.29638175674899 110.65167518375154
236.01089271246894 131.16604459117198 308.4962340434422
349.03367544438646 186.8759746735108 161.95151162984612
351.93489963967284 212.35765159957327 326.89758030994415
158.4975379484517 153.36542446194673 191.9455829563405
167.371824971333 154.1335699957969 335.5149310423716
116.83631064621551 255.06365338239928 153.23219613323727
252.97915373607506 239.11795449964228 395.6343708384458
105.54540533707522 248.7598413481942 264.3289612425623
350.91754735663216 158.72495687867354 264.00197677692375
394.16820828024333 236.77313506393443 241.8103510988743
269.19709208766443 153.3338131783645 329.55773645598674
157.41033039915104 149.4230090911202 211.40666423580646
174.08933502292322 276.04544139304153 371.9773454732571
174.90226646117577 272.2336930574877 373.6361839255876
160.37359405196992 153.40682595230243 206.16907676093095
268.65892909681213 154.19144928522846 328.084199928545
391.68870109357795 238.02301325912208 242.99064505302934
350.1578494837638 160.1344586198662 263.9719073725085
105.43664124735783 249.6353785340359 263.2969699461959
252.26747412965022 239.61761243384262 394.5063412650248
118.18442466905367 255.32917122678865 154.0373922202257
167.78448796395108 155.80512612785216 334.5974081161527
159.727666973187 154.78585807578344 193.01980502819336
350.8644736962803 211.78916938395858 325.7669542759475
348.03106360430723 187.92639457817887 162.6262997460851
236.4782507387712 132.87091077533913 307.7617628958756
292.7516652620579 234.24286611039508 112.65420908294611
223.42104850859042 155.2729807753928 154.99043921034607
184.4565144283699 268.5333124471411 113.37280291182041
353.2758630779273 269.21546324209277 137.39138653564424
159.35502209650707 145.15632085224098 281.179150123394
173.01331625021874 270.2327873616547 375.8111662962875
189.65396087596739 135.88999017265192 202.7232931978215
234.26529966419338 136.70576612560686 232.4241902264162
337.89293504938723 174.80577991582243 323.553082650921
94.76496380167957 286.9183889824453 225.72526126543096
239.3857141348778 216.08097846052632 111.3343798737375
193.5741967943509 171.9225780821547 143.08729539476033
152.2197566980116 172.9043746900816 340.43116159516325
324.17925138479995 163.84383452504844 312.8654504668238
324.0299933550053 166.19959099480036 312.1709780743939
153.58635119639595 173.19430600155613 338.8113993958749
195.00348173681502 172.30683112655407 144.69101777052109
238.65041435049872 217.9950262196136 113.15568563448814
95.58276691471274 286.34420677014685 226.2551271957012
337.03750471720497 176.05642108762626 321.94210189684134
232.35268264340723 137.91442828984697 232.59104385987985
189.88582391108318 137.63495582490424 203.26234213464937
174.81477905672867 270.49582940167556 374.65016552436
160.1671709962461 146.9016583385118 281.4326973393614
351.6415935582629 269.0483341994383 138.60239006614606
184.83605523140466 268.6727637311455 115.78055788308245
222.70338557199227 157.15513057602828 156.0896132748054
291.3267444731464 234.23249815689883 114.68456895756817
236.8355321918242 134.34578321587816 306.8842081184722
347.01888855076857 188.98741019472624 163.30825759119284
349.7811576748991 211.21266079946955 324.61834080506367
160.99269519931192 156.20137252517924 193.93516746311167
168.20062951094926 157.48497362688897 333.6743270220603
119.555830770782 255.60280760868906 154.8567649541118
251.54887771156987 240.12721063960612 393.35667842729515
105.65547854262674 250.45881355532586 262.38901132992993
349.38547201203255 161.55853183801062 263.94082890584855
389.14964329408303 239.31015585447838 244.26878367278607
268.0460491221954 154.77063529953665 326.61995082519593
161.82571514820322 156.0806854810518 200.91004258744175
163.29498559365013 158.4514105113798 197.62782792409715
267.27361029131345 155.4252938952148 325.4464088636086
