301.75992166514385 142.13311104360167 197.09501804790642
135.54474089130272 185.16780524052103 360.94119804438645
213.52311047460594 142.56845203099508 234.85376030910112
200.93377898958593 144.84260714668008 179.16135276325227
112.29143536451696 225.64068337304832 145.33744943812604
216.67937359906995 230.1563443128824 359.4040356312428
112.73269608119185 222.76450918700567 148.528718687002
210.05455235618226 261.5583223615543 483.34606854954194
199.6546388738437 147.75485769416107 177.4722066222936
210.98042038437572 142.96709415061852 234.0082249016183
136.17602626364635 186.60446398174315 359.7251574978715
301.48570071416 143.54940262801213 196.3741520180264
111.74921975577952 219.99019519390583 148.10093853145125
184.28787524044873 157.02156560797386 139.41579551730555
365.58940769861647 253.55333991596757 328.5022547150295
339.7666712663898 260.9043051471308 403.39565265522253
317.668892270048 189.3415345084676 384.19698695428394
86.15037246146682 220.07644656856002 219.20315366120536
259.70640088010185 140.9885628415677 135.00316613572815
369.38238720383146 155.67196797525517 271.77682858837244
164.55800926285596 127.08421000404844 285.3158700853175
186.74973801541904 280.99592713396174 392.553930521458
104.55986257140187 219.4044080177026 358.3205603354938
176.72352658682107 262.1223449942346 112.41298274504382
381.9371414484616 178.40981338273468 188.91825747793405
333.3929089096265 251.2623578914463 101.64715955787698
222.49976164657056 158.504166767478 378.9512232175736
303.31958117297887 149.28406489536627 335.5347795340514
140.8734132467969 278.55533625968746 364.0310243476961
375.8202831334947 259.0055232101877 139.76474783977983
155.58212010533205 132.70174663271612 234.8109350171928
466.7251243988518 222.6990014470454 320.27078432371
301.91436600454966 141.55900082441465 136.21667950766104
220.8551489226746 201.69297151708727 104.27457866332423
331.11359279557996 163.3443811045484 333.07914767899325
127.21811976584209 156.5513469445065 285.8042908516034
369.8385259633381 159.80959793621943 267.5479534438013
216.67937359906995 230.1563443128824 359.4040356312428
368.0088340338869 159.30205216353588 269.272952353837
134.91260461510265 154.95206945990958 286.59650535677036
329.813797854922 165.14393729980006 332.0709730398699
218.7077365312358 200.45984349688925 106.11864073955968
300.68996476581646 143.24575532684548 136.87974455687234
468.2726315833214 223.78648067995812 317.0082819889638
156.59764536057287 133.94538291573025 235.75368650536802
373.49677864073203 258.9569269021312 141.0235368389443
140.80253458542012 278.1920798858014 363.71724685726383
303.2958422410446 151.25539448454063 334.7651688340276
222.81476106606868 159.79277508149326 377.43565943774894
332.61584353631866 250.90255228621757 103.28873772508332
380.6650931853366 179.77391557330276 189.80971963153536
177.1000677818584 261.0768595728482 113.0684396311058
105.98745704771466 219.62924289527322 357.39452415264844
190.97564659555283 274.82756948374106 388.3444310945644
164.83008361359654 128.6692818309262 284.61936929048466
368.30181176615434 157.29230962159826 271.125223754926
260.33899432069 142.68523906553233 136.03890615188297
86.54883861038796 220.65978389606573 219.54110727260644
316.7451094131512 190.17260671647261 382.624038200804
337.695579973844 260.97197045203 402.12974097369363
366.07815045336577 252.8984727291599 327.6295217490758
185.18560205555116 158.70210890594342 140.1050475322654
112.6076625588924 221.0095086802405 149.49574337865624
301.06275751557985 144.98388201847249 195.81221496813683
136.88944731421321 187.7573442475783 358.42504524141674
209.18068934389112 143.11204051544314 234.1458211898975
210.05455235618226 261.5583223615543 483.34606854954194
197.0841764250026 152.92802739723209 174.15230092215577
216.67937359906995 230.1563443128824 359.4040356312428
195.34073362803295 156.360104019661 171.36590565299238
225.49107310987998 265.82122106477874 474.8598699934551
207.30465762507768 143.28357736090814 234.36702111919945
137.6091795818764 188.94099779865925 357.11042257788233
300.6326414205461 146.4482278455095 195.2395140331553
113.34521342858828 221.6827976384854 150.85363061411624
186.08958517705034 160.38935518572566 140.7969049466334
366.6029702607214 252.18419243002393 326.64793084022386
335.65502881925676 261.1213271942847 400.9924691773202
315.81181915385184 191.02032015329144 381.03247609125503
86.96659643477435 221.2766445459882 219.89371905629764
260.9799553198434 144.3934117892742 137.06520775624327
367.15079965614325 158.45177922043487 270.87287093870333
165.10458304684593 130.26764642089267 283.9169204479978
194.23945357425436 269.95847539934095 385.3123333387469
107.4575075968082 219.86272475693912 356.4406046086074
177.49156309404023 259.9690947973483 113.77219207279171
379.3867297200483 181.15373692265135 190.7090372480151
331.82284643774125 250.5388819078781 104.95972732614906
223.12753105828008 161.10186344979303 375.9082973549023
303.2703498976382 153.23216815557714 333.9938822890831
140.71253889324927 277.74457612822323 363.327497460196
371.28186703651954 259.07158431792044 142.09849581138545
157.62548001109064 135.20505547108792 236.70501794995494
469.62911770012454 225.0271173304923 313.63640630530875
299.4600647298406 144.94244867258956 137.54323945939947
216.5056629740114 199.16397734819577 108.03712854213418
328.50560031351836 166.94717686863072 331.05634667545723
140.66438708106276 153.47980850702794 286.93070867147384
216.67937359906995 230.1563443128824 359.4040356312428
144.46931895429643 152.16637538875273 286.83532324266207
327.1595603521882 168.76252163108032 330.025000553029
214.28116727645178 197.81528772330367 110.01630413241065
298.2251119789895 146.64848942286213 138.20698684204947
470.64238943480416 226.56952747378025 310.1087531628481
158.66484442260764 136.48026566750937 237.66407329611386
369.0552644238221 259.1747909324672 143.18914918104593
140.59879295024777 277.1980743475525 362.8469127613271
303.2286862295582 155.2078023703272 333.2225459992602
223.43797897493286 162.43052287419837 374.37031024002613
331.014075659369 250.1715979210602 106.65913145497328
378.10262380517247 182.54830641902052 191.6156390943413
177.90751805949074 258.77650540557914 114.53459003542908
108.96785131723607 220.1059006478801 355.4599605848504
196.5335189426489 266.4283297129352 383.40576585651047
165.38146205256635 131.8785934586568 283.20835320190224
366.01339528980833 159.42065289935675 270.8091228586778
261.6686217784745 146.11110251714567 138.00116641620596
87.40428836929748 221.93007828250046 220.25742224045655
314.8699795336165 191.88630732484572 379.42713547126976
333.5891157401344 261.2704582731649 399.8420169932084
367.14543366255066 251.4253080218255 325.55126773909444
187.00802708967404 162.07919807156867 141.49930043943968
114.09006495253735 222.3615563827497 152.23873829888046
300.21409360159805 147.92496756039225 194.64273450558355
138.33419938067925 190.1529169496875 355.78329240487545
205.37118535735692 143.52441828600803 234.77978449463643
240.49921206350263 268.56232384922544 465.148670941468
194.42019374058188 158.0688091791416 169.1734982643461
216.67937359906995 230.1563443128824 359.4040356312428
193.9106168834548 160.04914447342205 167.3492464816614
254.56091214630817 269.74756616147283 454.61070006191653
203.43433323655083 143.94974923032208 235.7022861342203
139.0637180021454 191.39071225860621 354.4452740699508
299.95197003577107 149.28593388080975 193.91324435618498
114.84203714556584 223.04589792963327 153.64977460624243
188.0155552353638 163.73884843933737 142.28345994067047
367.66817048869586 250.65254175073315 324.3354371783125
331.5005818834602 261.4198342670937 398.6803382740252
313.9207086771405 192.78583031457154 377.8287741179643
87.86217880653777 222.6283694008937 220.6168894239039
262.3560812001301 147.83849236339492 138.9466981159059
364.851248873485 160.40786030093935 270.7480625233773
165.66066061193843 133.50139013365558 282.493577728829
197.85317103500827 264.2637377308594 382.58813448262794
110.51613605995239 220.35959825992862 354.453906981161
178.37497262666528 257.43532239211555 115.382298174241
376.8132901877985 183.95671655521707 192.52899790985464
330.1897226169282 249.80095017850311 108.38592346430246
223.74540762970295 163.77843150520957 372.8242775624793
303.0574888965542 157.13229460263514 332.4635276950836
140.45592189957634 276.537476538887 362.25948317294495
366.81858766044155 259.2687413444194 144.29292729182976
159.71497068268297 137.770457151612 238.63004625971084
471.0257236200964 228.69146509737044 306.3274888406089
296.98550958607177 148.36332113386828 138.87084206058154
212.0824259373317 196.42395786301446 112.0410090323398
325.6299108249381 170.63377218672076 328.92462003005437
148.41308127527594 150.7327137268325 286.4410003159995
216.67937359906995 230.1563443128824 359.4040356312428
323.4047836056229 175.81854178315493 326.3752970807822
326.1316284673725 199.54205058925976 359.64726554476647
152.6019096490308 149.0349487689617 285.4776778570199
323.9066175780424 172.59953350837273 327.8932209419657
209.99031149036537 195.00189942619596 114.09097447768384
295.7416164805626 150.08642085867777 139.53470230348222
470.2389176564465 231.9171796002384 302.09634654369864
160.77511181576685 139.0750294261173 239.6021889184527
364.57308301325656 259.3551157350905 145.4078476427845
140.2779420181783 275.7483766705511 361.5488239965705
302.88501426628807 159.06258372521273 331.701954808592
224.04613105014536 165.14788046897465 371.2799588048923
329.3500112962221 249.42718494079344 110.13905575796043
375.5191917679232 185.37812029445075 193.448627718423
178.84333305537504 256.0644218182505 116.26456605279077
112.0998971457484 220.62441304578965 353.4238675230896
199.0518126240037 262.3258310150747 381.65883243713773
165.94210714492561 135.1353020515678 281.7725804624366
363.6647801104691 161.41374764955492 270.68892509154205
263.04252690597656 149.5747364017075 139.900506603324
88.33810177977264 223.40060935761989 220.91162480876292
312.96722229628523 193.8124595969467 376.3520070197814
329.3918348384023 261.56976041366715 397.50900090977586
368.09928185400616 249.92384480769024 322.99987355566975
189.0110455641602 165.4095082831207 143.06138683363494
115.60097860208579 223.73598238965147 155.08546188132158
299.68309843870094 150.67343609708814 193.17325907777155
139.79713162404266 192.65216695317753 353.0976728717249
201.6225676056112 144.50783524236437 236.75832183331718
267.3077772382646 269.48225761992745 443.663936854404
193.3855063632809 162.4300722014073 164.1177326548191
216.67937359906995 230.1563443128824 359.4040356312428
192.77187004487976 165.83184369005923 156.78043609311212
278.5194783270722 267.9359434875527 432.6692553862787
200.19036502827126 145.2752336192779 238.0260302630422
140.5339782666055 193.93525927607806 351.74154344330975
299.40772236756663 152.08652239583947 192.42347444096617
116.3667505210988 224.43199567819238 156.54453840327807
189.87386149306315 167.12637540779107 143.77781984573357
368.3033053557523 249.3441645777964 321.55040003360114
327.26499724375685 261.72042753632695 396.3292805347578
312.1448707256835 194.9440342323452 374.74720993826026
88.8166076864137 224.3582900398988 220.9074547003247
263.72812445061425 151.31911905868998 140.8615439593206
362.4545553732902 162.4385585487058 270.6309261177565
166.22572216581605 136.77960973713823 281.04541551589455
199.85715039883476 261.11851689846213 380.486091307538
113.7166272418378 220.90071266052294 352.3713273975491
179.29342177605895 254.68402582180326 117.18298516861384
374.2207452759743 186.81172776406936 194.3740810646551
328.4951967873763 249.0505428152978 111.91746835319626
224.32179938856268 166.55344266741548 369.78273715181314
302.7019276109185 160.9989132599455 330.93236888186385
140.05856646026828 274.8183980378746 360.69930585199677
362.31974514774424 259.435218259498 146.53234772072122
161.84454935073254 140.39335153519005 240.5798165663155
467.2635641020231 237.2443577607678 297.0248592978839
294.49372070271437 151.81729489890955 140.19858192887835
208.15078022311374 193.56621513885136 116.1328706127481
322.2183619923377 174.2938495607148 326.98659244678873
157.26370647510834 146.8077132449018 283.4525494808452
322.9654756111398 199.51819520855395 360.7053607038363
216.67937359906995 230.1563443128824 359.4040356312428
319.01208306981016 199.45334465993687 362.46547154671055
160.17120677319204 145.48907352209042 281.7387045154433
320.6479739183128 175.1786715534344 326.4599221390111
206.8374604446147 192.14676086961515 118.1035810043574
293.24186132940883 153.55546304479208 140.86307528673797
460.1760441610368 246.5894721176882 290.3281549565074
162.9225990798586 141.72477497445757 241.5623093660553
360.0593897253627 259.51007394700355 147.66517322269422
139.79172794401052 273.73867960002 359.69747897152837
302.4254114030224 162.94602996223122 330.10566496869103
224.4821715534076 168.06809852802175 368.5538542278314
327.62556323624574 248.67125695687864 113.72009702384463
372.91832715665004 188.25680257107814 195.3049463317208
179.6504840907488 253.37049216807657 118.14414577129509
115.36382762443515 221.18865638648455 351.29778597509033
200.6707763259591 259.9017825415045 379.2585081512195
166.51143073180003 138.43360270696527 280.31218954389107
361.2212847052963 163.48242511242216 270.5732713460575
264.413014191284 153.07102169828386 141.82895238635672
89.31979267882812 225.3485236036314 220.90767236787465
311.2945393667724 196.0728059415767 373.153368607419
325.12196375380665 261.8719454266346 395.1422241761331
368.02683362454763 249.1002585905387 320.0054495170555
190.7440930647812 168.84779452607455 144.49388535391805
117.13921694414364 225.13413118895173 158.02575942868884
299.12602109103074 153.5242481350534 191.66470922416724
141.2739029894577 195.23816480359136 350.3777434384482
198.7029396907702 146.0755865993865 239.3209738655459
287.92750720891854 266.59802536900224 422.5132262127651
192.57922659062882 168.9521908370302 151.37796907124684
216.67937359906995 230.1563443128824 359.4040356312428
192.75647156735207 171.67616105275005 147.90061707893264
295.6492901996007 265.46671250116856 413.4126064692398
197.16400080453542 146.9070777305575 240.6422523230452
142.01663098807575 196.55924763412122 349.0069772357049
298.8376347862934 154.9859276610569 190.89906946663834
117.91825207243282 225.84257685435458 159.52789168235412
191.61992685461917 170.5726227401417 145.20735191609913
367.74689283879826 248.85685292354114 318.38707939774656
322.9645102461479 262.0243597110138 393.94868667835556
310.308842341834 197.12416090747075 371.6641389267945
89.84785115841449 226.3719525854148 220.91222255092165
265.097314662726 154.8299009352321 142.80202148974936
359.96587442302734 164.54537218718332 270.51507494697097
166.79933171813758 140.0962430061664 279.5729734371832
201.49065304590204 258.67609436515966 377.9859530642146
117.0390040742577 221.48823133720398 350.2046965542115
179.62477016508677 252.41939215306238 119.17289641443297
371.6122835281272 189.71265644138296 196.24084555945637
326.74142131247464 248.28955155629745 115.54588086537117
224.6375443831036 169.60086532024908 367.32566664106986
302.14596549137644 164.89829853773668 329.2755451576743
139.47232830401737 272.50525349529335 358.533601483631
357.79269844514505 259.5804959783135 148.80530211225317
164.00861503393185 143.06864522847033 242.54911146008638
452.60813881605355 254.7130679447086 285.1404643144516
291.9847493006925 155.30039349574633 141.5321005508675
205.18049200412753 190.87594232151486 120.51758962868325
318.99780568861394 176.0811284684425 325.91480783613133
163.01501943363476 144.4820920305053 280.08520701378984
313.76132536311263 199.2408512021622 365.62438791560305
216.67937359906995 230.1563443128824 359.4040356312428
309.80512069678025 199.48317476227837 367.3282187523298
165.66883346688425 144.06184807835905 278.55256281988954
317.21226082849273 176.97646511996686 325.3506966478867
203.635327726865 189.81755102382544 122.90519426175442
290.7133145593235 157.05124990614124 142.22908829872665
444.82577340972773 261.5199044881335 281.44279107872165
165.10199182128255 144.42431160746793 243.53972823128782
355.52024340849994 259.64712789244396 149.95189468859644
139.0971763315272 271.12002021291255 357.2029745549951
301.8467548632154 166.85688640934004 328.43191041511204
224.77602366433513 171.1583424396591 366.130456461621
325.8431052965052 247.90564062594024 117.3937691480599
370.30296689195023 191.17863386746853 197.18143471834676
179.59666118167797 251.44647171552438 120.23682196418652
118.73944024419566 221.79933165876758 349.09332171660407
202.31101788024165 257.43824536164396 376.69708615285305
167.09264108457094 141.75999960159285 278.8264512259193
358.690073243969 165.62741359277834 270.45438135937366
265.7811259168204 156.5952736271914 143.78015658320047
90.40088685785526 227.4291326935793 220.92102460428183
309.31625782087855 198.18255616749138 370.17466994635674
320.79462335180637 262.17763911928904 392.74932465227397
367.45879733357236 248.61659327407415 316.69852850794507
192.49114426850775 172.29177909082756 145.8955930261024
118.70385328680936 226.55752382908045 161.0496517520672
298.53748730030026 156.47318564025605 190.1402121175394
142.76194844935918 197.8970477243093 347.62983179849965
195.5771739009903 147.76781422568746 241.98884942194024
301.75930091598315 264.539719092725 405.4783673215378
216.67937359906995 230.1563443128824 359.4040356312428
356.64383788943286 193.0259481941442 192.76989231751733
306.31122689958204 263.8150127917333 398.78164661475927
193.94564325769332 148.65591611541257 243.3595967851353
143.50969598148038 199.25027711325353 346.2468128747988
298.17887059698177 158.0073975056803 189.50359584427366
119.49705335119269 227.27932454942908 162.5892029628402
193.26272939184472 173.915202661663 146.33548756120211
367.15222680581684 248.3868286913599 314.949187498062
318.6157094210116 262.3315705798095 391.5444818168374
308.30875301338943 199.22681327066047 368.7303342336147
90.97890911636183 228.52052248122024 220.93397279177802
266.46453251139695 158.36670612660498 144.76285489543284
357.4030129295973 166.72952411996076 270.3783964301083
167.44962235144908 143.30065779383014 278.0465019874366
203.1113075685913 256.1730732649856 375.491943626422
120.46093660813105 222.12202666371488 347.96416207426057
179.5743913081273 250.463672948 121.33564434526554
368.9909336270855 192.65403627234284 198.12641671515047
324.93096986098254 247.51972707607706 119.2627273158572
224.82706483351677 172.78164663559545 365.1575169178336
301.395008203366 168.83347653917664 327.4944324501356
138.66605020722062 269.59114733899446 355.7067821866708
353.24248161219776 259.71045032996216 151.10427162686867
166.20216548365173 145.7911353053117 244.53372247871403
437.0478830344185 266.9520758199264 279.19779658587544
289.3721957679961 158.80613298150848 143.092455301614
202.39886280353733 189.16392349199663 125.15386685934685
315.0645097024282 177.752829851074 324.7726424529227
216.67937359906995 230.1563443128824 359.4040356312428
311.6496827299504 177.95888122948023 324.2086384783721
201.8274112759786 189.2786332947809 127.04274016011222
288.0281153384574 160.5667524386754 143.9565285770342
429.46013510900355 270.97464865470613 278.35881700261103
167.3086124270654 147.16849604563942 245.5307113260872
350.9596624389114 259.7706934168665 152.26195302162387
138.18288334207006 267.9330227722541 354.05230394539734
300.9276878296161 170.80110548681347 326.55734964510896
224.8757492559634 174.4201401977371 364.1803222443584
324.00538650324364 247.132002053898 121.1517418414754
367.6780959966073 194.13768101051022 199.07562155668612
179.59577579137886 249.52677626242232 122.46910835004302
122.19154592920823 222.45774604281837 346.8143409504659
203.8127618295193 254.82425693927135 374.7429889103122
167.88208241482218 144.73593522420833 277.27309256337867
356.18599389161864 167.86324691650597 270.1674003727165
267.1476060595715 160.1438062576297 145.7496875198039
91.58183083773666 229.64647421123536 220.95093718683466
307.23218986434813 200.11414245861084 367.64082378573363
316.4372784829691 262.4853089138908 390.3337408513556
366.80075794038777 248.1882330085058 313.16505361251006
194.0617195907095 175.59308261320254 146.66756792940632
120.30702943655845 228.0098155294258 164.14021890047607
297.8148273236702 159.56179566439155 188.86233101402908
144.2598093983115 200.61788112571918 344.8584219855749
192.27130349329326 149.56967309501167 244.75305682120813
309.3476911415957 263.2907912495934 393.3745698787182
360.957187694034 194.9390148716708 196.78653866938112
216.67937359906995 230.1563443128824 359.4040356312428
363.4936668022332 196.77246647711246 199.88864034296793
310.9050919396268 262.965399139254 389.2989728405037
190.55245165973898 150.50792063454824 246.16717491824306
145.01261834884323 201.99948314438373 343.4655024195638
297.4454889323711 161.13551142398313 188.21691591231897
121.20640919418872 228.76286622699672 165.66126503820652
194.86791872177037 177.28282943080643 146.9977627160601
366.3314260872104 248.07927142424418 311.41919407651767
314.29334010829115 262.6355809400988 389.11442682830534
306.1125462518721 201.07706857509436 366.6201022036365
92.20946833650837 230.80722625760572 220.97176548519747
267.83040730599475 161.92621656121932 146.74028577110258
354.95124577232997 169.01449762713654 269.9527624843682
168.31961651945375 146.18438145278566 276.4908192560319
204.53107106634675 253.44622513000772 373.95249469136184
123.88088706891236 222.81494542651794 345.6253062886189
179.83961102242196 248.90293156247262 123.63516187313245
366.37453189051104 195.62525818681664 200.0294392272321
323.0667391294973 246.74264447559167 123.05982296015198
224.92253839958144 176.07273056242073 363.19896466918544
300.35706230380083 172.6871539133624 325.6329555597984
137.6572850825383 266.16632711610293 352.25271434415737
348.6714082521851 259.82741456006164 153.4249054570788
168.42084051754915 148.55580033499587 246.53037574005586
422.2251024659462 273.56785764768796 278.87354009621185
286.68063534963625 162.3328326091165 144.82256438491717
201.2532741286058 189.42750977425217 128.98635162424128
305.4755029323525 177.084852353876 324.05765021112956
216.67937359906995 230.1563443128824 359.4040356312428
301.0563689546738 177.1315467495784 323.6381794907202
200.69044995502222 189.6144430822055 130.9759048326527
285.32672216589975 164.1044944723487 145.69701755812417
409.8206734016101 276.1623631617499 280.7347485831033
169.53831865445176 149.95251717431222 247.53258440539878
346.37500306465773 259.8778037428007 154.59459101639996
137.10700651035594 264.31927650624704 350.32712934985364
299.78315578124824 174.57174739691115 324.7088016697126
224.97025259779284 177.7352550782831 362.21242021781023
322.11541653818267 246.35182056350908 124.9860014911371
365.13883196763175 197.09341105425793 200.99108201836285
180.0909893683765 248.26907930504026 124.8343179389384
125.2899733786193 223.2366162205808 344.3047725030965
205.26508039612318 252.04223650517562 373.1206097798549
168.76182426202962 147.64572349578063 275.7000926357295
353.6997303505005 170.18292133636882 269.7340506841452
268.5129873852859 163.71360391393395 147.73433238106657
92.86154345653851 232.0028971664793 220.99628718576162
304.97739431548376 202.0529409756065 365.5911728487626
312.31492558114957 262.7696074861176 387.87691326976716
365.53643126767906 248.22570133813431 309.92077184320567
195.68092593267815 178.98416690773624 147.3264320189525
122.11571557369741 229.51503818521957 167.2011675937946
297.07062049564547 162.72777021857328 187.56879580228298
393.72020113776586 261.2146103129721 209.18942889178874
145.77064633874278 203.3980802170921 342.0711783640985
188.77718990443745 151.4710998040292 247.5982960569044
216.67937359906995 230.1563443128824 359.4040356312428
186.90426825015922 152.46441383497793 249.0384569361901
146.54923812353934 204.83597329221334 340.6921058934803
389.29528933669496 258.8999942437663 207.12554510028014
296.6864310702338 164.33847733316014 186.92895815904998
123.04845898096055 230.2170258939875 168.77198429925292
196.49875887323026 180.69739763258667 147.6523160620404
364.724144702309 248.3828045893476 308.37838611863344
311.0163940360074 262.8372535739996 386.59081587247033
303.8274907456112 203.04157866977462 364.5538223851867
93.53768957225762 233.2334805371507 221.0243272658318
269.1953850667158 165.50561100259952 148.73156840786652
352.43254370197684 171.3681209402712 269.5109425428681
169.20843475044092 149.11961358545534 274.90149329379227
206.0136049633589 250.61533925481282 372.2480317167474
126.73266072061793 223.6664068863981 342.9682462168482
180.350002266589 247.62552389825555 126.0662065948116
364.3173013804178 198.40378684097547 201.97816778363293
321.1517927581321 245.95968282789897 126.92930477245403
225.03787250421834 179.3822553412692 361.2121348219145
299.1899631717074 176.42332574202013 323.79806345856224
136.5625900061112 262.4316874352948 348.30207576623314
344.0585304397515 259.91007817508614 155.7781837436251
170.6598737803556 151.35847083090462 248.53852988868934
399.1425510748426 277.83616876408007 282.1810152423097
283.95050683853196 165.88395419096125 146.61188306519523
200.17734017377657 189.85238930161586 132.99230761103954
216.67937359906995 230.1563443128824 359.4040356312428
199.8230226241184 190.18144135809106 134.98515948458848
282.47231132460263 167.68487569038905 147.72484655759354
390.26116440699315 278.7202956304004 283.24238130932883
171.7784361292494 152.7764436661033 249.5608238645793
341.6734421860675 259.8778578425791 157.00535764632573
136.07645588950658 260.5645588212641 346.216312129305
298.4519010860822 177.99154621804797 323.0053504539932
225.25520236478943 180.8410674429566 360.138150101715
320.17615979267083 245.56636675400856 128.88865253164496
363.48829000458863 199.73581821749477 202.9817912447783
180.6167188704052 246.97259147429443 127.33039306329913
128.20548671567968 224.10473066354592 341.6178609365302
206.77548154969736 249.16831550339475 371.3358979485107
169.66166107925105 150.6048388164925 274.09865457347536
351.15200692170083 172.56999152062113 269.28363271819813
269.877593253009 167.30149916322296 149.73190476721643
94.23746965091608 234.49883524693578 221.0557640468035
302.6636499314059 204.04275209098924 363.50788490950146
309.7130081218815 262.90477803722274 385.28279142419524
363.89374147062983 248.55037675128636 306.79322355052216
197.3038492897448 182.4286182590075 147.95854241063188
123.98680274205053 230.92938038687157 170.35501600561705
296.25422784098396 165.97350853353296 186.40217378760897
385.9047267852251 257.5662894465085 206.46449227022595
147.43918003483614 206.44860081934522 339.42407032434494
184.80716119578264 153.50737312012356 250.46804617644895
182.1103996266726 154.66275492103222 251.83615356248336
147.95059219927955 207.95152127184892 338.16817268343675
216.67937359906995 230.1563443128824 359.4040356312428
383.693008169938 257.20357762709824 207.09475644660193
295.8148968544174 167.62384578140615 185.88032934125462
124.93051896502857 231.65141054752524 171.94939111524482
197.92582983675302 184.24031162415284 148.07497806683782
363.04449522392383 248.7281527890121 305.1667157762619
308.4047095039874 262.9721978862745 383.9533021290828
301.48672794816827 205.05618309686474 362.45325077376026
94.96044812758761 235.79864237337122 221.09079965633725
270.5592747650563 169.0973425268188 150.7363249714158
349.8736088255726 173.79212882207133 269.0571497611287
170.1722655032419 152.08345765073167 273.3550519467285
207.5496146950993 247.70372460259472 370.385664437247
129.704918963233 224.55746436454336 340.2536316032245
180.8911852329047 246.31062769851496 128.62638056510826
362.6508022230737 201.08903621483566 204.00103664600513
319.1884745542257 245.17197985925614 130.86243895737923
225.4726435454793 182.31181428865304 359.0592277027096
297.7056851378097 179.57209275187353 322.20605302015383
135.74047790517957 258.82001595182703 344.1324082341111
339.0249480652251 259.6007630729366 158.3950373812818
172.83511225654524 154.23547003827548 250.71291599147568
383.21745324699793 278.90399111143216 283.9399553996147
280.96675384909304 169.50183532363528 148.87438904750564
199.94117108204142 190.72165511658253 136.80932016492565
200.11493049194775 191.25370945413283 139.03138074741872
279.3590482970949 171.3720215363562 150.16365934728074
378.03932847949454 278.4559920330262 284.2903272495188
173.89072007072284 155.69942743969872 251.8661269121518
336.2403803180394 259.30381242438267 159.76934083600324
135.7194432866151 257.3808314612445 342.16162395158995
296.9520366383411 181.16510377304851 321.40017923349575
225.6903821616097 183.7940268376931 357.97552121454913
318.1873816874186 244.7765675414484 132.84687781239128
361.80397434854837 202.46278753090368 205.03486071708028
181.17342049873852 245.63999966999492 129.9536190427208
131.22609125373504 225.0615874051742 338.8653343673798
208.33504374485096 246.22427254944077 369.3989527528355
170.6865290961876 153.5740655346093 272.6048158530054
348.75516920616457 175.0775406582503 268.8873445387195
271.2374240712143 170.86382271101775 151.75385399919153
95.7065279992842 237.1321834408553 221.13125984057916
300.29760534401106 206.0815474046846 361.3898719749183
307.0914313430732 263.039530693976 382.60282624265506
362.17579793345095 248.91581233581482 303.5005218651625
198.56012262574794 186.05676378485438 148.19985040626582
125.87937928560622 232.38252447212312 173.55430164070856
295.3448028387377 169.28533424926258 185.42721097222068
381.47865225898914 256.823966820325 207.87392272517965
216.67970703456493 230.3753127822225 359.34595422791267
148.4810208547348 209.4842274399095 336.8936722634084
179.59108180370544 155.98926598272055 253.15537709019864
177.46860167226004 157.61302683765194 254.35306386942528
149.0287786000912 211.0533162190025 335.5831332471481
216.68122241946577 230.63856552206164 359.2735734694497
379.38849371614555 256.4117394347263 208.8529155020179
294.8021982964303 170.92227381419892 185.1082907672094
126.83315599934092 233.12220155286533 175.16899801174978
199.2699653510549 187.81078903797302 148.4098267775207
361.2871576407145 249.1129787403586 301.7965409488186
305.77310130831063 263.1067945021979 381.23185740596904
299.0971699281566 207.11847914696753 360.31776403288234
96.47761834102161 238.49720713221905 221.1868844306696
271.8872203263277 172.37030870421864 152.8550985667331
347.62632051834555 176.37945844051637 268.71404578231807
171.2044449011103 155.0752324609768 271.84668817782403
209.1311397809756 244.73465088191654 368.37722867602287
132.75600170680656 225.83395806862998 337.38362671291867
181.4633937839417 244.96112356614722 131.31154380499677
360.9471036797306 203.85625517995712 206.08213173455235
317.1664162885721 244.38001456894318 134.82946363941238
225.9099417782362 185.28643851571957 356.88698979088144
296.1917098321102 182.77062240144463 320.5877841574784
136.31394745623115 256.5872153250103 340.5151009530065
333.0554001385597 258.95856862420055 161.0966267956054
174.9145860647928 157.15319554402146 253.0246969839844
374.7479215588605 277.4340782891762 284.30765597444827
277.35074909134806 173.44833703417595 152.0002931421241
200.47056840899663 191.68825870827865 142.72220320476535
200.78924952416776 191.90071362513373 147.03622859180354
274.28313538497224 175.54407326955214 154.6259850200516
371.35522194659086 276.3632990632648 284.35538456971284
175.66643889833347 158.47930308226336 254.22082035528757
328.6836127818192 258.4802611221685 162.29553748230248
136.93264347118657 255.77330044433506 338.80260188725475
295.4254796153349 184.3886007919181 319.7689679140627
226.143352702277 186.78142459741977 355.7921043237884
316.0992258872311 243.98179618648717 136.76313731945788
360.07965209405506 205.26848018570823 207.14167753324958
181.76088596402155 244.2746437651725 132.69978441398246
134.29473361128606 226.6195987104104 335.9036346220263
209.93836532044213 243.25047988293218 367.320654235637
171.732821881753 156.56512287738246 271.0476142079191
346.48772866044453 177.69730468924922 268.5371279006332
272.236737601806 173.88766580740935 153.91400782311945
97.28598329526368 239.884203126682 221.30582615308018
297.8863006475798 208.16657706394494 359.2370046035523
304.44964436202264 263.1740077039917 379.8409036745464
360.3781274900122 249.31919006606324 300.05706499634874
199.977504936387 189.5390506002578 148.71690790436796
127.79162372487569 233.86997426646028 176.79278525499177
294.2543893471575 172.5742196364462 184.7893456216726
377.65661378169665 255.94077862687163 210.12798344745687
216.6849627116236 230.95258629459104 359.1830388612341
149.58531208290827 212.7151336056532 334.12011438385105
149.8658171652745 215.0081873233038 332.5670637861229
216.69273957489946 231.32313891497114 359.0692550125049
375.8780046760256 255.4577411337294 211.45314532623385
293.70144059644053 174.24054574570837 184.47055510604386
128.75456141538052 234.6254187714574 178.42501954786277
200.6847849364236 191.2616672506729 149.03651969661564
359.44798768216435 249.53375856707584 298.2854964879809
303.1209853039914 263.2411889082216 378.4304862745455
296.6658534079531 209.22541175545842 358.14772932217943
98.19609141363816 241.2476480988098 221.72262070981995
272.4351401436848 175.35227431491913 154.989297291227
345.34005311644506 179.03048077045918 268.35645224145657
172.32875193751005 157.9987019025585 270.27684051321603
210.7612777728691 241.84199356957885 366.2230984799191
135.80011805863947 227.45019372003011 334.44642235683233
182.06467363021972 243.58249666714158 134.1193635540309
359.2011490569002 206.6983370052088 208.21237401792138
314.8820401746622 243.5805279030255 138.46418779365015
226.48520096630648 188.22108257902428 354.6776294020522
294.65418340584284 186.01894673109663 318.94386823245964
137.57432120420805 254.93991531621558 337.0282443061735
323.41251531806313 257.590263160707 162.79748039415486
176.16273921390328 159.76798790489826 255.28775376289963
367.8884622080868 275.1491318930055 284.43150052702214
364.3673779231521 273.6213569802365 284.5358614480152
176.66050670015187 161.07007026326005 256.36214666584164
320.0025085534693 256.57196937735193 162.57839515705834
138.23781111813167 254.08759224848433 335.1977267042014
293.8792405322275 187.6619117453337 318.1126186733838
226.70023605180168 189.81679582006944 353.61135393243393
313.6949273366596 243.22960156150737 140.17295906157068
358.31048443355866 208.14416262791562 209.29351335415186
182.36772867364655 242.89413831872702 135.57967609164038
137.07460799395386 228.47933259348818 333.114489281414
211.62001432334003 240.84795069354104 365.0496636256897
172.92801298428964 159.44252021494154 269.50074239037133
344.1842034955112 180.37833258051822 268.1713039766293
272.4736450568979 176.6960838417735 156.01615780153654
99.12975604452843 242.64969659882036 222.15039337313635
295.43664940809913 210.2945333657031 357.0501254527093
301.7870510639909 263.3083567932472 377.0011381221998
358.49448784704066 249.75519453881216 296.4892925278039
201.33329234547028 192.80945263038757 149.48896395048712
129.72175666501005 235.3881702027948 180.06510325696496
293.14289217786825 175.92037009310522 184.15264666886873
374.049277973146 254.95267568141972 212.82454041501845
216.7076666304312 231.75379529097486 358.92536936287297
148.60393924282087 219.17886342753013 330.5169209651193
145.7905786804426 224.70718778730605 328.28639282939037
216.7350505459059 232.24335023714656 358.74198094297975
372.1506393763251 254.39290260789352 214.23266862811894
292.57261040995957 177.60982949825208 183.84241419696565
130.69302955519888 236.1581016956877 181.71246719288007
202.07103549823353 194.3487033964772 150.0535957365244
357.50895773868604 249.97893019159093 294.69166420679176
300.44777273328856 263.3755299556092 375.5534021454415
294.19946632399007 211.3734787870825 355.9444232642624
100.09152028207782 244.08693564953086 222.59071206911545
272.5955367328354 178.0648763131233 156.93434630066713
343.0244282703811 181.73965177322697 267.973803112919
173.53044478991114 160.89619898334234 268.719809246635
212.49302218910688 239.8505661766293 363.8475046561056
138.32441853337315 229.59072748556216 331.8748142447499
182.62900774741175 242.26291263209265 137.13925455290868
357.40109119745756 209.6010258259562 210.3871022873393
312.693120988435 243.13260236495972 141.87855749083866
226.7807930242249 191.34370917963386 352.4940281602233
293.1073998229601 189.3214821654627 317.27500939979325
138.92220235977484 253.21600887226876 333.32087430375265
318.4688569355085 255.45792526085913 161.6736545856957
177.1582107265353 162.3849535672069 257.4448341134503
360.8020625790244 271.46697673340543 284.671045393246
357.1844325436726 268.10097225296613 284.8437711897399
177.63941515559867 163.70941365698684 258.54579020895625
316.76357852063956 254.2785386762357 160.78759648054256
139.62736387994315 252.32249824589502 331.4191995440299
292.39301828392183 191.03540855905996 316.42747325575755
226.86823894232052 192.88749236615604 351.37336909713343
311.66896641471953 243.02251245733513 143.60316399722532
356.4280058847374 211.04198739834445 211.51336279540342
182.9038115871285 241.62390291014384 138.72059411579397
139.57897793789894 230.70953497157623 330.63448268718776
213.37959363578096 238.8504738100494 362.6178721506177
174.13792479189436 162.35909064076606 267.93958077011274
341.9050906883876 183.1066021894091 267.67136873374466
272.71775358929324 179.45189636960467 157.8652455569603
101.10138287390264 245.54952331129172 223.05068024896065
292.9550330216898 212.4617745584815 354.8308787359608
299.10308732890604 263.4427267590028 374.0878294486557
356.4573320882454 250.18840227129886 292.9777312147479
202.81532295444651 195.89956051218329 150.62414747404566
131.6684149540516 236.93676395485218 183.36645868878782
291.9231575673227 179.27232881110524 183.61255106741774
370.1135966405988 253.68004983699117 215.65293938074655
216.78387330918787 232.78139046791065 358.5059025296815
143.845172862645 228.858987028144 327.2185482956326
142.7701865140163 231.57921969760537 327.2429432499949
216.8692469620811 233.34079747588873 358.1981910045554
367.724792794097 252.52481353572955 217.018251595385
291.26006412024645 180.94423834845918 183.39231644034086
132.649616804226 237.73867259372597 185.0255426800462
203.56607281166995 197.46186079296893 151.20046179507452
355.20653899784065 250.32016219222902 291.6763905546102
297.75293928814875 263.50996518811485 372.6049773625205
291.7040336000306 213.55890538769944 353.70968556264256
102.23987053713407 247.00281769477505 223.55943999759435
272.84116462027544 180.85689584551258 158.80833745550726
340.8373653233774 184.49393273476986 267.296432651422
174.79790209699914 163.82398091937915 267.2802657725877
214.2789251564749 237.84840080078342 361.36217905236924
140.80836090166414 231.84069967597262 329.39935713920823
183.2147181405331 240.98980564764503 140.31398540955766
355.42963311296876 212.47814996405543 212.66833700779128
310.6243637274303 242.90007858887734 145.34393130239206
226.9606744988228 194.44677472548634 350.2508321962814
291.7195371355307 192.78700105495955 315.55158597540145
140.35526224656914 251.39804359986525 329.5480359025801
314.9085688180254 253.05733689649813 159.98181012601214
177.94103062458998 165.0146140172197 259.7646138189229
353.4653529487101 262.4165093275851 285.0675903777135
351.2383162390409 258.0581865628897 285.4145367465307
178.37246052086425 166.19931598298334 260.97398275727255
312.9440266763579 251.83316818793054 159.36115345450136
141.1133306094888 250.41651142912596 327.8611286426906
291.0178313853115 194.55420545895996 314.6716570294496
227.04687682059514 196.02210397458254 349.13446699937646
309.5606006067355 242.76610093762216 147.09775049313245
354.34840943709713 213.8112169881179 213.94877382718244
183.71708862272882 240.44074068736558 141.85718628925318
141.7824439149912 233.0245074821653 328.2163379516806
215.18955101667655 236.8460624095791 360.0827288934576
175.4631458294731 165.295629966156 266.6226340129779
339.88058540017823 185.9231813793021 266.97155757834935
272.9665633045403 182.27944668537876 159.76300057910146
103.82421493283641 248.31578536730285 224.2335452620578
290.4471728285381 214.66398749214056 352.580263721585
296.3972816950353 263.5772627111562 371.10540742082077
353.93426971168253 250.45368981866545 290.3569529426338
204.32318171188444 199.03540760044157 151.78235779616762
133.65165880052842 238.67966888526146 186.68152125268253
290.4906088861215 182.59991422766498 183.27787536123796
364.33916248280366 250.08116272193385 218.14046061138066
217.01646205434525 233.8651291791221 357.7909759403078
217.26764157996 234.24739697392997 357.2423261051448
358.0244215541452 243.87460440767305 218.48693501257154
289.71589005775746 184.2661481981698 183.16470334510777
134.74825399352852 239.5750650430203 188.37304856727192
205.0864571378643 200.61992885361005 152.36967206204977
352.64210768407327 250.57843949407956 289.02870811936367
295.0360772445058 263.64463615417 369.58968330496805
289.18575868174884 215.77286399688123 351.43503670460655
105.43468216806158 249.66715020726005 224.91639668909755
273.0946171777596 183.71900431945642 160.72851798527776
338.9198009597417 187.3628362199592 266.63767454829025
176.18551003749948 166.71901036274755 266.08686565005377
216.10595402963816 235.85145742527232 358.78709792259457
142.56586267731242 234.24448524340312 327.2469099879853
184.3322797736297 240.09548797100572 143.31790103152724
353.2218710528383 214.90067827178416 215.28427945120163
308.4761324187884 242.621015448481 148.85758728884394
227.03332944551224 197.62875421928055 348.0919149003015
290.1346573063145 196.3453875640822 313.8042676055264
141.92300061770604 249.30580972785992 326.79911052139516
310.94015668107403 250.67623605111896 159.11380298016613
178.4947214050491 167.5431260773393 262.294657158579
350.4581926566825 255.07704501740886 285.8605502211821
349.67737485225797 252.2741708853151 286.06780443681834
178.47028682972768 168.95253617498184 263.70563228243776
308.81262017076943 249.12700320208563 158.65922847608402
142.5621897605981 248.12495856079687 325.6010308379058
289.07658640389064 198.1570490748229 312.9294807766763
226.96488924904614 199.2661841264306 347.09686202806716
307.35386405582653 242.4628358611692 150.59115413011415
352.08054847454804 215.99817716382975 216.6302504181056
184.96225684079542 239.75076554293548 144.7963247514097
143.36330483837529 235.48654127992066 326.2655140625808
216.99838221486365 234.91039385329444 357.5141269986741
176.90679496518783 168.15725399704922 265.61137811628754
337.96865609050315 188.7901316459339 266.2248949725791
273.22566198026556 185.1754688955418 161.7038074301541
107.07054679421796 251.05468137069565 225.60797221782911
287.92676576182424 216.85262149014554 350.20449258349527
293.6692989544195 263.7121015894484 368.0583687947871
351.33692126327463 250.64397802961446 287.7337602076494
205.85481552625342 202.21456179336272 152.96270343159432
135.8504653503632 240.48051645221213 190.06956463961896
288.93601979220796 185.94251910608997 183.05284822449232
353.4118324477862 238.7028056318278 219.01216027809772
350.46617112442436 234.62729119525508 219.67707238530122
288.15111184069485 187.62862010723077 182.9423513758635
136.96572213632354 241.40406114079468 191.77083572709267
206.61680592774502 203.81167260730098 153.56741302906124
350.05135263151277 250.40588690460547 286.6761027379309
292.2969306391524 263.77967423967783 366.5120257610553
286.6634291080033 217.94008717457453 348.96653051383504
108.73103579712418 252.4761481743285 226.30822181972437
273.3571816301442 186.65646099713663 162.68333561068326
337.01330732056766 190.22804502700728 265.8075698656499
177.5506842530328 169.56345035087045 265.37475446451896
217.6926559506613 234.29436648557947 356.4879586321592
144.17514616488498 236.74892515768352 325.27167575463494
185.6168835717401 239.41629311450802 146.28608822572335
350.92507171154983 217.1029269401739 217.98571052912118
306.0875301516458 242.2752119186956 152.1149898617838
226.89840163929992 200.91373889862194 346.10052618806077
288.001863056271 200.02489043611462 312.07655158086806
143.23418604627392 246.907851486264 324.3624980441953
306.47111435273354 246.48767057328763 157.5674452182215
304.0257774887024 243.19551256218094 156.12585688296568
143.95194275278482 245.64321474871832 323.093727737722
286.84394855320517 202.10563267394969 311.3584427777158
226.83362453346052 202.57076330964955 345.10296861753517
304.7418607862836 242.01895052467083 153.52113725823568
349.7560850522627 218.2139991997411 219.34966356216992
186.38652829298226 239.17599045478806 147.73526057977782
145.00111708708374 238.02703219006824 324.26440848951677
218.40707030866335 233.66673358021188 355.4279619144834
178.1520765872573 170.9567785318743 265.1937173601605
336.0565994014342 191.67646850022524 265.3826833076423
273.449333302858 188.27698248845655 163.60107493160098
110.41538974357242 253.92932700141583 227.01710102386116
285.39880926950656 219.0370700261713 347.7234348777527
290.9189671619023 263.84736839876086 364.95121223147027
348.99196219644693 249.9289688543292 285.8467178868871
207.23865780570762 205.32292540809715 154.25667737035846
138.13908005187864 242.39506214830902 193.47818160574093
287.3612823775519 189.3240602129583 182.8332504910653
349.15661616012943 231.69701975927433 220.44956911694538
347.7733877609483 228.83835901974803 221.31854969015075
286.5666642663946 191.028482741652 182.72560709756843
139.31700814156883 243.3954452929244 195.1900490722668
207.86556106163857 206.84615009220596 154.95202620541903
347.9051849420342 249.43872781677774 284.9947381829067
289.5354144854827 263.9151973696544 363.3764805573494
284.1536712150129 220.16052819266952 346.4905359320618
112.12301705187657 255.41196956917838 227.7346653071825
273.5453402605874 189.9108949223574 164.52497139663905
335.1396162973366 193.1395355258527 264.9017825080339
178.75744887465837 172.3619029807931 265.01205603712015
219.1414582160469 233.02721190191872 354.3339594861006
145.83615611335753 239.28996171062684 323.23630804298915
187.1690486311477 238.93647794412908 149.20023859138874
348.5741605975099 219.32931140019338 220.7205560209448
303.3937220678709 241.7396195145971 154.89784205070288
226.77034453779507 204.23667864778454 344.10423790699474
285.26910336059615 205.17634629445303 311.3221551996562
144.79160565506416 244.26050243254878 321.83765082720856
146.1317824533748 242.4026153961758 320.78775079893734
282.31504674657475 211.67353997156758 313.9832628936672
226.70837390597757 205.91097002034357 343.1043742274538
302.1154009646454 241.32235844546344 155.9882031251956
347.37941297770027 220.4396455073736 222.09307125199237
187.9641631476218 238.697801391824 150.68042622366718
146.6303421518507 240.24950175657938 322.11703643012396
219.8955077003922 232.37560417563185 353.2060047925079
179.36670663928209 173.77861970326765 264.8297539118664
334.26769495204735 194.6111069992549 264.3673136813904
273.64521153706005 191.55720476978416 165.45441355524827
113.85392126281397 256.92166785171815 228.46134103654958
283.08885341516685 221.44504492861446 345.38615705614154
288.1462895433754 263.98317341899565 361.78837570361367
346.7905711887912 248.93609787922526 284.11987882014085
208.49741533305686 208.38096943004913 155.65320986821044
140.49922881097194 244.40472766010186 196.9060932388325
285.7675789380451 192.74178472096446 182.61982625558517
346.3677314465873 226.18826321325673 222.36453685432036
345.01838896727725 223.99297799007493 223.7303078377335
284.9665603785666 194.46671699602348 182.52042307831303
141.68552867398196 245.42240190377044 198.62613800310436
209.13373330666428 209.92620520536607 156.36041695088457
345.6478581028418 248.42216440228066 283.2220043035885
286.75161995414516 264.05130774767207 360.1874336795142
282.0221300248045 222.73716942397292 344.2771892762628
