376.0371779466037 241.63972111059175 429.9340187938594
406.564711849024 -6.5175374534134 252.4196782416898
10.07329564243954 189.71541068916727 70.19250867636843
62.38072764203254 125.03731989793116 230.5013153491926
82.39730203565225 108.13329411770164 183.026529842193
58.32319404433315 59.13280527226408 125.85157918775684
124.94871384137005 29.08652213301095 346.4823419417512
415.8145090374761 78.83092227206456 426.0438733820202
201.6448475367851 78.84124608295369 159.0042733110242
385.9740563244331 34.09328883843448 338.28201994775327
219.4277763126789 91.69029160125312 435.38060010016983
256.54847579076875 87.46222188236982 440.844568222511
96.50407605514886 9.92634920076192 402.05481967578197
423.566977671228 139.49151276720505 432.09308635981233
124.44405635433752 82.64474579771657 394.2343003669565
63.193775099150294 14.83024575413997 140.77751541800816
82.74293210684529 21.474507524387896 393.42561699382713
265.7922061375315 69.86154769785657 438.92561523596754
113.50312326026068 25.421768211458875 113.93526714122842
221.77194275786897 71.95747496529204 433.27191802357703
398.720053568534 43.36088444935828 339.42855394390625
432.65370884572866 2.1988118496420306 121.6175504424873
57.98811310840704 270.0418466262133 408.2810392231217
407.01607466135147 64.26795899480511 428.5686468628143
110.79055984633465 27.165675501443943 345.5440892141292
189.73925837237897 36.98919994604203 60.959613273872016
95.36543721577155 12.53816164507964 273.3869797298628
171.76736776830973 54.570677905002796 373.2543560435381
252.1226965294688 271.5929466906711 401.91275471331403
466.9524423791618 308.50092461948526 427.38123559960894
383.7615357227008 248.0171698673019 324.5965061432886
346.23773641555033 122.4324561995095 133.87264078074477
483.96543579189347 255.14780684589832 328.2015449304598
132.8736377861545 96.84819765149484 468.46376059689425
176.19368728963286 150.169899626618 102.15908270268355
65.82302659831863 73.8005563624798 276.2927164566724
376.0371779466037 241.63972111059175 429.9340187938594
406.564711849024 -6.5175374534134 252.4196782416898
10.07329564243954 189.71541068916727 70.19250867636843
62.38072764203254 125.03731989793116 230.5013153491926
82.39730203565225 108.13329411770164 183.026529842193
159.68509883371473 64.95524730282774 384.5856828369954
58.32319404433315 59.13280527226408 125.85157918775684
108.86805883198141 12.17259019199837 289.4605245801432
188.5072385226725 44.221058684255695 60.82509482267785
115.56982678536566 29.392667733512216 342.72034895745793
405.59952378287767 75.87376533149265 425.38000457305174
58.96961206064328 270.54504804892525 409.1511412339748
201.6448475367851 78.84124608295369 159.0042733110242
427.60865669079755 17.159803040801002 139.2585257638176
392.46163043616957 42.31093661021772 339.1848837545303
218.60243307072702 82.19088839757762 431.5219418018984
114.83089203470571 37.44805578999923 122.72245003740343
263.45333010869956 80.10015882692015 438.7967248578108
87.84126277158742 13.764164066721264 405.6374118519014
61.43885571155592 41.80518447587322 135.06229402545154
142.7712678892049 74.0981166052248 389.9724853331834
419.6936606678642 136.50858362382922 431.6916875738927
312.3676738596382 55.28454267250568 140.46827382938807
252.1226965294688 271.5929466906711 401.91275471331403
466.9524423791618 308.50092461948526 427.38123559960894
383.7615357227008 248.0171698673019 324.5965061432886
346.23773641555033 122.4324561995095 133.87264078074477
483.96543579189347 255.14780684589832 328.2015449304598
132.8736377861545 96.84819765149484 468.46376059689425
176.19368728963286 150.169899626618 102.15908270268355
65.82302659831863 73.8005563624798 276.2927164566724
376.0371779466037 241.63972111059175 429.9340187938594
36.6987523720675 3.597838028039554 266.32767216346156
302.8204312198765 48.130204692029224 155.98263099015523
406.564711849024 -6.5175374534134 252.4196782416898
448.57397815497643 128.91667106189834 102.49603621192247
10.07329564243954 189.71541068916727 70.19250867636843
62.38072764203254 125.03731989793116 230.5013153491926
82.39730203565225 108.13329411770164 183.026529842193
411.48503728297817 130.37149729117053 429.3951801261046
153.8842179672073 71.07451783525768 389.888057830375
62.42016630488938 63.14603907588945 137.1425932441747
147.3656160825991 15.90145535798819 198.53556263692292
85.61273696399022 11.825936356707796 414.24367567704394
266.15451990296845 81.77954619327816 437.5113635207676
115.02403282910322 49.268389961054744 131.66227867005335
216.3714540291802 82.56622234963595 428.3800499258782
390.05235235680084 44.954253735009345 339.1546565635728
424.7850920102459 30.221392923501018 147.33617174487108
47.19872384149703 265.3399211154498 101.22760999265725
204.71263797936663 77.49341679766582 159.44501494306306
61.83591225865224 271.0635708094689 410.4042474179665
401.1650687516587 84.02218614759909 422.7329665107629
116.98425994377357 31.455919420084903 338.83496548325746
187.37135113971854 53.70527437825466 60.765252639927226
451.55566437571787 110.48395283409414 108.8857461585261
290.4041879518198 46.28555933641275 171.4741202394085
353.7065406979387 54.338398619981966 74.07320372255231
114.44715572105957 17.72521776083081 304.0533006316059
252.1226965294688 271.5929466906711 401.91275471331403
466.9524423791618 308.50092461948526 427.38123559960894
383.7615357227008 248.0171698673019 324.5965061432886
346.23773641555033 122.4324561995095 133.87264078074477
483.96543579189347 255.14780684589832 328.2015449304598
132.8736377861545 96.84819765149484 468.46376059689425
176.19368728963286 150.169899626618 102.15908270268355
65.82302659831863 73.8005563624798 276.2927164566724
376.0371779466037 241.63972111059175 429.9340187938594
119.20172596920547 32.67944091722833 318.24283353491745
36.6987523720675 3.597838028039554 266.32767216346156
359.6628244642885 75.36012673054395 89.37222286887523
299.05531655629164 45.50537798436374 165.3484763133723
406.564711849024 -6.5175374534134 252.4196782416898
204.25086837053374 9.259590083192961 221.99222525507602
444.57822849527975 120.26973195251499 109.46984537486577
186.71232172529852 64.85631748601853 60.885573640786674
363.56068402768835 125.23814118249358 71.13480896438355
10.07329564243954 189.71541068916727 70.19250867636843
118.80364227404186 34.54416036796251 333.12661260833437
395.7622865058773 92.99613497883276 419.85864825200565
67.07514037295431 271.35433800025254 411.8186758198601
211.79444005442264 74.53400927386225 158.97432538184708
57.57708544731075 243.11318711607967 105.7917596652039
421.0834797743906 43.27477027409144 156.12057387520434
386.7039964187294 49.26800302413948 338.62059196747714
212.49847118823627 83.23634608115484 423.2252649974945
113.69060165443827 58.63063843568981 139.33444151175343
270.66731001633366 84.70033273935815 433.98016570971885
84.46394379765002 11.489778271830097 426.7227766109717
169.0835432725167 33.48882317881257 201.92305611449612
396.2128121931348 7.700630112163907 201.27436490493187
65.30097356219258 76.3814023149469 144.76301179563703
62.38072764203254 125.03731989793116 230.5013153491926
156.8230075046367 72.9028470530324 392.908770301659
82.39730203565225 108.13329411770164 183.026529842193
244.30914027690199 45.1663694646646 166.01895197011103
400.2779322330831 122.93992778816728 425.17995096852235
161.94438447607854 91.52349592532221 78.06550379086207
252.1226965294688 271.5929466906711 401.91275471331403
466.9524423791618 308.50092461948526 427.38123559960894
383.7615357227008 248.0171698673019 324.5965061432886
346.23773641555033 122.4324561995095 133.87264078074477
483.96543579189347 255.14780684589832 328.2015449304598
132.8736377861545 96.84819765149484 468.46376059689425
176.19368728963286 150.169899626618 102.15908270268355
65.82302659831863 73.8005563624798 276.2927164566724
245.81474525417656 18.34348015288942 221.24966503242283
422.8780893060367 43.471816513479354 275.49200355609685
376.0371779466037 241.63972111059175 429.9340187938594
178.69794358925253 90.42969430995689 67.65930752412505
387.9990075921319 116.68010895209332 419.5709874777318
235.4965557226765 60.838551592212085 157.67275233887
287.79504470241756 96.33065674301423 422.16433497168384
75.43633895718209 114.36935392733753 166.84840093994904
337.4533277269088 101.01394466040496 456.89811506210617
161.87468107296945 76.8083020243154 396.6456402905867
79.21141853258324 111.44225729749762 201.89310296672278
70.63777611715939 98.90870694225606 155.34123128712184
378.95839183694056 23.316883694799113 191.4040183622082
182.49719638553887 47.553522804494875 209.62677952602058
85.65421677034692 14.12691673947532 441.1503805132344
275.7283558914036 88.2576678875711 428.3640694304463
65.42689625158215 249.7714352482746 349.2932048023558
114.78832757652502 68.40368475269858 144.10867524141366
207.041324485817 84.3415297179278 416.3406820490282
382.48327436828964 55.22365442602393 337.5645151344664
416.7547059855659 55.31170590100568 163.82701541412564
67.67255851559031 229.65460757539344 105.55596751893718
221.354755796551 71.05613338684631 157.14918671388804
74.54763101552305 270.9002866739185 413.0172356429007
389.75084425437046 101.98933573885603 417.1071636472945
121.10212227898917 38.780362584847104 326.7494566698487
43.89694006126075 215.27321366158787 70.22795996787504
361.27511284371616 117.45441876992791 79.74474500273871
186.60112156895136 76.64391131718354 61.30759982761222
437.76590241162603 120.94616947030558 114.17615690476141
36.6987523720675 3.597838028039554 266.32767216346156
226.57461227917645 13.543019289533605 223.14973872662313
410.5836828554156 12.380728506593261 229.709491878936
302.04726634661074 43.40755174915758 167.36147521715324
364.6303996798845 91.15596344805881 96.2029178273944
102.81246246809542 279.09072743014235 439.66834034637543
389.81054731474023 89.8338066684957 322.10511287566146
203.83868509598787 84.45810146062256 210.73375122806942
252.1226965294688 271.5929466906711 401.91275471331403
466.9524423791618 308.50092461948526 427.38123559960894
383.7615357227008 248.0171698673019 324.5965061432886
346.23773641555033 122.4324561995095 133.87264078074477
483.96543579189347 255.14780684589832 328.2015449304598
132.8736377861545 96.84819765149484 468.46376059689425
176.19368728963286 150.169899626618 102.15908270268355
196.32803046805319 70.2327469604671 223.3627395719445
100.22205378520438 260.53583155234213 333.04936597335075
377.0542527104124 76.48743907824561 330.8313064373748
96.42769990721742 270.2556693382531 421.70160086635735
364.4754935017392 111.9078809627179 99.24557871686991
65.82302659831863 73.8005563624798 276.2927164566724
308.0474589362491 41.95312223317531 172.14939050267026
411.7770205820037 40.37088823880068 210.05761619416828
240.42019097064536 14.462882605034984 228.40690328677366
46.754586932405985 39.861089548971634 269.481740465659
425.6610098571866 121.9092179716905 121.553958584006
415.81000135094905 45.157789956208404 266.50796626717914
376.0371779466037 241.63972111059175 429.9340187938594
187.04621887833227 87.55695927338252 62.29397127081306
360.24552499470275 117.03695800885887 87.65878979191999
81.69569427015016 232.14073757625613 67.31764275943215
123.65354738681373 44.18742520867255 323.0498411474934
383.0947098213835 108.84605529199044 415.36371047198656
83.23903598285787 268.69310874594476 413.7125090802357
230.27828757800026 69.069305246199 154.0639858039035
74.67128720187792 225.29119183731714 102.54742049055498
411.9252908185331 64.97511041784595 168.53014240996336
377.54156190581347 62.22134075627473 336.23562276073767
200.57859983803618 86.02108988965425 408.7391501355589
228.62093627333311 -5.2643915913844275 353.1315110450717
116.2761068998489 78.83279190265861 148.89751601337824
82.89718955684432 254.4841337398338 340.7774997036149
279.154828388404 91.03605084905504 421.9017110317715
89.93635386924808 21.274060490236103 455.27280144599234
187.52765438284936 56.32846939333822 218.64980292661534
364.41937848644193 31.150046081751448 187.19494872784216
73.19249704879026 117.60041843860557 157.1133025187355
164.83494283151157 305.4644861520071 45.8297396279287
98.26520427119917 105.06986343201106 179.83400545893073
169.09733654431838 82.63854347395008 399.7898182756124
354.9333116015028 107.804576598324 435.6886456509393
252.1226965294688 271.5929466906711 401.91275471331403
466.9524423791618 308.50092461948526 427.38123559960894
383.7615357227008 248.0171698673019 324.5965061432886
346.23773641555033 122.4324561995095 133.87264078074477
483.96543579189347 255.14780684589832 328.2015449304598
132.8736377861545 96.84819765149484 468.46376059689425
363.1595030685199 116.15230523649284 417.9350084034551
94.12562882919511 223.39329068882006 102.55670956632628
402.851570902138 90.97488013182608 171.7778531251735
178.0987893744844 89.39060464325749 400.3125014693622
114.12312031767017 103.61053337338042 165.87726692495562
176.19368728963286 150.169899626618 102.15908270268355
400.5398558339501 168.34480801084743 126.41120601255179
172.9796160934779 280.1628621343434 54.197733445336674
49.57151192274098 190.48740140036563 237.83095930118805
73.18570535512094 129.28892432067008 152.22250918662925
350.88560020260854 39.16881736580107 184.37896544652202
191.95798341797197 63.00908653909427 227.80990877585543
98.14964410114534 34.97458986734206 466.7053179216338
278.25469143699434 91.05891119707927 416.7515089575105
92.51874994735665 253.28342532610327 334.11355333791516
118.14314844068811 89.46407704217599 153.58087787654915
247.6558463955959 1.3585021603559095 334.78899619504546
194.18457375261085 88.40197216056477 402.10819634085783
372.0409557198569 68.87033752593811 335.2067780274908
407.14245009740483 74.85456770861958 173.76837690488705
81.52940850254726 223.8050471994159 104.3848604271821
234.83246961213732 70.77559329374762 150.16924921715395
91.9104141182461 266.4663284477354 413.0785178624554
376.2930526477788 113.67892214698156 412.9969823865877
126.95956314608286 50.59066864477289 319.33459845905725
445.7531243226464 192.95720863534075 253.61900981792098
114.08284771501468 240.6684429176664 63.32936296539239
360.1971367743863 120.037292937961 94.38040189795093
270.26616492503547 165.7787410893221 457.8145133425254
189.46572823452178 95.95493493177494 61.76518216571407
373.85384298131527 240.60179760498056 427.6809112959263
411.9728301753727 50.12348959865483 266.40112295038796
411.1354061646017 122.84042114065124 129.50866552997817
65.82302659831863 73.8005563624798 276.2927164566724
244.79852645335325 12.697902160788788 235.44252785825773
224.30430434905753 202.22757272937508 456.08822775469946
409.77017299768534 68.23964993529336 199.8790755342365
316.3861001947451 42.72083833946742 179.03506541806908
252.1226965294688 271.5929466906711 401.91275471331403
466.9524423791618 308.50092461948526 427.38123559960894
383.7615357227008 248.0171698673019 324.5965061432886
346.23773641555033 122.4324561995095 133.87264078074477
325.48607218638296 47.19711765130786 185.94785309077668
483.96543579189347 255.14780684589832 328.2015449304598
132.8736377861545 96.84819765149484 468.46376059689425
403.8148486714594 87.15071507883958 191.74239772081177
239.21642421481624 189.6806015304509 450.2049935623466
250.6851187689051 14.000827597927604 247.61809080913727
420.0371945889138 274.8505646026215 98.46086863636222
88.83726050669301 98.72775729379507 284.89527595531746
396.07890193072615 123.26608053417267 136.83544711483927
404.97496648436487 59.45480667639262 266.1165905635084
368.48155277972626 237.81234266352092 422.6179918948632
192.56395678202486 105.26435467418516 61.053517385685936
254.80182937820928 177.5697584897307 452.92860703635256
359.0356095321178 124.6820926186304 99.38561683117734
138.0491534015236 247.33149280030557 64.40195098731783
433.9496705254789 187.0525612398049 274.97125265992844
131.58369808326265 57.2233714004992 316.92892489265057
369.25491540734714 118.67334376872782 410.2020940927012
97.6099286703542 263.6815368673218 409.8690979027104
240.5994449698882 73.55760284129148 145.39465856497955
86.48115459374705 221.233076796371 109.08099723843388
402.7651117832357 84.19631413305392 179.01474729526623
80.71572673668221 275.0534131946636 140.252472008357
366.27633790520645 72.11689674435853 335.6178839851011
189.517786816348 91.63901884358896 398.94408919212555
257.11076459879456 10.087952947161964 318.39229024845287
120.70042367143506 99.4314939209772 157.75616041595774
93.55192755394387 248.2491576554971 330.84718030929025
276.580093070321 91.25291581442995 408.4654486985644
111.65184217757299 58.365833534658705 472.44383546420505
193.52170460450137 64.83072271235835 235.85706485511884
340.06943897344456 46.381716892616275 183.87492494540336
59.765087113049 266.73429696679716 268.63722745291886
76.42583774552627 145.46848378575987 145.85881546743005
176.19368728963286 150.169899626618 102.15908270268355
55.210666760811435 217.6531987490207 246.42610419271193
173.316594239869 261.0501229971426 61.706890305807676
381.2916914593901 151.2651853368063 117.56750923849374
308.6078186989329 273.75172354452286 405.2071504047418
396.73579625299953 224.07755118750498 115.38878164788389
252.1226965294688 271.5929466906711 401.91275471331403
466.9524423791618 308.50092461948526 427.38123559960894
383.7615357227008 248.0171698673019 324.5965061432886
405.9202073777549 239.693573539263 111.23980731324995
346.23773641555033 122.4324561995095 133.87264078074477
293.5761043654608 275.8171900314601 417.61803584756126
362.8923195591229 142.00358379479238 114.9010365104583
168.76684036651721 250.3438461350401 66.88125762874701
61.57094283706275 236.89428049699404 248.96494106629655
188.12160867170485 164.36847881582926 89.10562733024508
83.57191099364852 163.86601087515368 138.62916569276445
61.76810386696338 251.86554413923312 260.6616963073008
334.9175334045611 51.31126835859938 187.13900887011226
483.96543579189347 255.14780684589832 328.2015449304598
195.08330460097434 67.66017598340696 244.7231672216391
132.8736377861545 96.84819765149484 468.46376059689425
274.69938046758085 92.03848718077911 397.71048887757433
95.40284943133007 239.43908282349736 324.73283436318025
125.1982375937414 105.86486614391166 159.87876590397065
258.0730067020369 18.070482255845253 307.22210905227996
188.05852679282143 95.24933497781926 395.6529581375224
359.5137404293536 75.87571534969125 336.1865571403022
77.38037061846751 283.8388326110957 167.1449663575712
399.97802335461006 90.8499969081164 183.16158195907232
89.36060401037503 218.36705376664665 114.92983841808955
247.3853505394089 77.49442195586788 141.0821204086402
104.23792529519008 260.4981952627418 405.7077193479851
363.6748245020287 123.53446192529043 406.4750309924199
137.10006101084176 63.5981416143931 313.73359792377977
425.1463354548669 188.59496106732786 290.3618870542011
154.48284781598952 247.67688675709306 67.30401735752793
409.7266391293371 233.8293929904643 70.89694277969593
357.38329383427487 130.35504690402655 105.46084410374286
246.9347962759782 183.1282576568014 446.18886361854874
289.08191587042677 279.6263304543872 435.92841810020565
196.52771743811016 115.83117023800949 60.54858386331884
360.5710925270592 233.3997552306492 415.40186282077804
396.0384578663948 71.45356665013837 265.44799399454143
381.741716417309 122.74821911097703 142.58011361057098
107.11681330794185 132.30233535715774 291.8228239465477
322.02627143144576 234.47409007461556 424.05474477019436
413.2652264613621 257.42020119458005 105.64753393622586
403.37837651628575 188.13087230162213 328.84787022230773
136.95089313791166 96.65719689729885 324.18370729447355
256.8622695873918 20.458452736616316 262.7540304831795
270.54007472375986 67.7816264338169 369.4406540946989
252.1226965294688 271.5929466906711 401.91275471331403
466.9524423791618 308.50092461948526 427.38123559960894
383.7615357227008 248.0171698673019 324.5965061432886
271.16667681351987 87.83939031633524 371.5092174053611
261.455271284711 32.99703333702023 279.23919338139797
146.62372527347318 83.50665726719625 312.30847553876487
410.734968186955 199.24008504207464 313.51891510871366
410.5636199338322 248.9897427831292 111.27411382259092
335.4948670972515 227.34034648924626 409.299703235275
346.23773641555033 122.4324561995095 133.87264078074477
116.27653075749151 163.51939647866536 295.3931830800036
369.76004441752514 120.69165887965714 145.35693212797645
228.1438591476588 231.978242332294 58.973262031499594
386.4482416115688 84.06453788509796 263.9533644702328
351.677661865105 228.45345546489682 408.0100634199219
202.9169815245202 129.54873212395825 61.36748008800256
285.9365028462342 277.1658381845125 425.1957941340411
246.91040147343867 182.5031594158072 439.9552304606529
354.9391395194149 136.25443477208452 111.90601169399609
410.1348658190602 242.81415351749055 94.67251943680219
161.98309322332463 243.5701584839235 70.81608084782621
420.4055735765699 195.180660753366 298.13276911692225
143.08336609289057 70.14805152172113 310.40794803175856
357.7700221318873 128.71756710709673 402.35986010132814
111.67925373196363 257.0253415295935 400.78528825731917
254.34235633684762 82.66120462665783 140.08689158837663
93.03745803535958 214.90241741325994 122.17499639921705
396.38501423124706 96.5993146371641 186.48453302606052
75.29238294475746 284.40909947499784 188.47370833070735
351.82354899925656 80.1832228585142 336.851231330336
188.09510165995923 100.31952207959043 391.94685308501573
260.3194311218034 27.335348761049943 296.2400511650546
130.61091200852658 111.02409229861797 161.59378128403435
98.1651578498199 228.85315286803984 316.6413201587227
272.92988117045036 93.59879375092201 385.9068597386498
152.06366084959055 126.89196204528483 459.51760729292954
436.05052302111426 143.0257870852141 217.8658677209048
196.1207548967194 72.8225841239163 252.68175114356038
451.2591648522136 256.3593595386951 318.67724739911085
333.4002352347824 56.58469211522442 190.17353946188555
64.24101962678353 246.96561457486976 252.05232159161392
226.24558243294098 78.71395033683584 280.41124993114835
156.23394948233778 105.04788497559696 185.06009189400157
93.5951371703321 185.66184499918475 135.29368373642671
198.05203388704197 187.11199731984385 80.84738010450974
252.1226965294688 271.5929466906711 401.91275471331403
202.0075195105938 207.68188918553946 80.30764595524879
466.9524423791618 308.50092461948526 427.38123559960894
134.82161855329647 248.89585337848948 395.28796876669867
99.20099038518805 198.9355796251823 134.7618844050897
145.76097285467054 117.12072701052094 174.0962890838917
207.80555567205772 83.38498275836152 274.0630413424459
383.7615357227008 248.0171698673019 324.5965061432886
67.29761562558821 247.28246775629088 246.89673918964857
331.74180188988316 63.14609843487945 193.7842689959985
414.9306412176277 253.66917730818523 317.6179218111587
197.08973858880245 78.50391079138083 261.22385125558037
416.1964865532178 146.4199777730725 209.35808918980086
166.1913426836632 158.16336826847743 442.03531921869626
271.3721583787298 96.20066902030487 374.6511867317215
101.45610426356403 218.87026636332703 308.0364947557168
135.58328920921798 116.61463460221795 164.27322982743553
263.09646832117653 36.63409826568534 288.0521764199798
188.39461827257315 106.1200322238458 387.58324149077
343.37809946214827 85.010892252722 337.46575527353764
74.47036252753169 279.5653519793991 201.49066497091843
392.2469294090148 103.1442482202613 190.21182878379062
307.46247758453836 264.9418811884443 68.33819080419838
97.2903488575953 211.31155837504605 129.7465315222703
261.4775926973964 87.95642341723554 141.37588207605668
119.6019243602407 253.4096443298476 395.3010479379211
351.5698585944941 134.18560087043343 397.93405674150523
149.84573246426794 75.65633434514811 307.19458184911133
414.9147875923469 201.7358892673898 303.7565355652814
165.90046832833215 241.5035537173762 74.34056592039772
410.88049688006987 247.97137102259933 109.21575767368101
350.1641337009372 139.79199118353765 116.49308734726488
246.828579614831 181.60355214630403 430.06006254452075
280.2811566626356 275.9914873789616 420.3641853417519
213.67818589266085 152.59275947318767 66.87592340667634
343.3333637722009 224.3634835910343 402.69871635792083
377.14420542284796 95.68457183620073 261.1433508637408
214.0495384110856 220.48572183142005 70.8995984410388
132.73204774810773 187.63061161876496 365.9773668898798
358.70390453785063 119.85063904354246 150.65084359697795
344.67079759245786 118.97562293136575 275.65650585221186
240.4938129137542 209.51761134597353 412.64474526081176
118.46171638413205 188.0588303067845 296.36254248608134
252.1226965294688 271.5929466906711 401.91275471331403
115.15385635284491 204.50198748170916 295.26387052033226
244.55169582337797 189.61377842087435 407.96830626995836
354.5805648966192 115.56110519222155 259.5821730769329
355.0535673304683 120.6971568992527 159.86448801083236
136.04781559270953 207.26933033859754 361.47914304094877
204.6694908082614 217.35384949431696 80.01965776125705
369.2201853074952 104.4314416593471 256.365909778037
339.0971703526149 220.05732627249017 396.1676190500637
224.99219963138273 182.99622099829404 78.36904896337595
466.9524423791618 308.50092461948526 427.38123559960894
272.3588347769127 274.6522889836909 414.8130929769863
246.68546313477688 180.63609604519309 418.27167482849507
344.7766072792577 143.66291592839744 121.10469140430106
411.6552438799196 249.48093879854866 114.44804516880052
170.91278071683902 238.28979504377432 79.29618698487066
411.7312862422615 207.6936464034641 305.4352643566079
156.44875219523556 79.85865400823444 303.54429493374454
345.0881533381753 139.8474351430936 393.2321416694369
127.16583548518986 249.9045136064251 389.39477933346984
268.90107005155755 92.9799613568442 143.91845999339532
101.83271937294109 208.78710100091897 134.5701817561897
313.9101988986234 245.72635422418088 90.5093184338984
387.49544024872876 110.37135242690805 194.03062109281225
74.82949389750151 270.5528679650823 215.26625934812907
334.4776945742115 90.23926721301896 337.6562764797405
189.13901689588297 112.34915697183376 382.6156121350195
265.7483354771208 44.50570444439629 285.78205654920595
139.74950650581243 122.01513191565218 167.7752394054297
104.76590300426625 211.79956838195884 300.4274066738897
270.27541545383957 100.66993529801758 366.83512563747655
172.8971102482309 183.91687544372405 420.7493515216772
405.6543401665109 148.27560652160633 204.15508452005358
197.4707448163318 84.41512939061897 269.5599539388931
383.7615357227008 248.0171698673019 324.5965061432886
329.91706934567287 71.34259919083472 197.99021321829116
240.1128895686245 121.28517414723385 349.62071355443584
71.60500784135206 248.4685392463398 241.1807012386766
252.1226965294688 271.5929466906711 401.91275471331403
284.4622651169244 106.8379248810862 136.54693945124598
322.2108580727654 220.59476433103998 120.63515825683866
77.16628997372838 250.83814808507756 235.8512156605454
257.12206048066287 113.8221077205442 349.132327649443
183.4324679629363 213.03937659235302 388.2463459040382
327.9292270344879 82.47411796802663 203.04977645647
361.423262085481 241.20120234499424 336.12059436715106
289.06335650957556 139.01871533958325 109.40512448131197
195.49496521586113 89.61704972347607 275.46035931689664
393.69569666229836 149.33262050646655 199.85615353354115
173.33019214738763 201.89757350494537 399.95005930161733
268.46485623894364 104.33113920747196 358.2779840689135
107.42296359590401 210.96428648837428 295.9703156327793
142.15526498630507 127.8738550678854 170.28084096594364
269.04173531436913 53.14395080785001 282.7980454674766
191.20615115009417 117.79200936505597 377.0221626972706
325.7912235970863 95.5716239038457 336.26932874394384
76.39482954664638 262.535648134079 226.113705737954
382.3522834192099 117.46155751736873 199.31655924861275
317.8201892532282 233.55252914413586 106.04912974245296
106.8768793476707 207.1649780297144 138.68762073949142
276.355500745028 97.62430055233848 146.27165824529138
131.75906451854215 247.2587914135494 383.19513617582436
338.17017830597115 145.32164613025228 387.9932454622802
163.42061850944464 84.40629580584717 299.7491058415115
407.6125356646419 212.02835348395274 304.89290741214285
176.7870658223269 234.3245339680699 85.32342178337196
412.7846680166901 251.45076389111716 121.86037632511062
339.0430890564125 147.8032280396841 123.52435291181037
246.6550402382439 179.74181317605624 407.20453160347944
263.1495440508309 273.17922934096566 408.7941764463009
461.09031558663077 314.72236010538415 383.48477614087136
232.4523096939688 204.20520788162415 90.64259909477859
334.4982970795203 214.95607871727057 388.32520135740566
361.8568674772134 112.62589284303968 251.72346264061676
201.0312596406924 221.2182448010238 84.8872139268602
137.26875781340644 220.5799689875014 364.4352540531134
357.1425563145479 125.80801718523267 183.0492555204109
366.9812777978 129.9304768951719 199.99185109287072
141.18255871581624 234.06765201341307 367.16763068355294
196.27242783463564 226.0443913480499 92.60117299269682
247.56195660793873 218.79586265608745 115.14321086937574
208.13374073013568 186.3716773697447 370.85648780474855
356.9847046865711 117.68130857661092 247.11788430452336
329.5517842196449 209.345204876419 379.7214559881851
236.31746199676263 216.23794425907832 101.22124351826686
450.0661816126464 313.1710631146027 343.1853031575856
254.20040786083462 271.72098400642113 402.9951157066624
246.99767072953085 179.05419067277023 400.1158895303556
332.7311280715286 152.40612038032097 126.15601252719422
414.0807373983331 253.65630674964655 131.54092141411138
182.94047174158231 230.69093457676377 91.76877374657543
402.7845032384086 216.96534054906078 303.94318517620013
170.2252973297571 89.42962259295801 297.0315563474444
331.2970123189825 151.00752471397945 382.6287952017698
136.92309305577626 244.70368225195256 376.71305474063024
281.072993231879 103.45920671696801 147.70919591043622
112.64586688217695 205.60659004680983 143.36366672856295
319.37561762597227 228.12255863946933 114.59062244296155
378.11253639121645 124.51429454523978 204.08143236471705
79.56545800655593 257.04675182252777 231.14531015478215
316.7977796522729 101.17016435854174 334.7601832217951
193.5374704947425 123.6426078106416 370.9841727799983
272.5707137199174 62.751225989271155 280.1035094915751
144.77668864845216 134.27346969796704 172.96691218890078
107.4453954434871 212.1226516515916 292.4923778565091
266.7386616719001 109.29113319729076 349.8260282042616
172.70805746573518 214.78578021462218 387.6920228324426
381.68686635953355 148.21331819090923 198.88642194028813
142.44419802940754 225.59505263092052 146.67171927051336
191.63848818681402 95.01437584078775 282.1332032251193
305.3566013543904 148.13432421418963 118.63070618204009
337.4142532011682 224.52596610511273 347.5858260808285
332.1438467993647 107.23751373680592 215.85878221513343
340.96189307822954 123.18378175931866 227.63496531896737
322.0243631625365 206.37443069557787 354.2001474587333
311.6562155958286 157.57817131304017 127.99631299265162
189.2034648424471 99.93959174851047 289.1933507587084
132.7680807247037 209.90280280477918 152.28307565582912
372.0750373498319 142.0591427353684 206.1789107306247
171.44936617202754 221.8740331782216 383.55527519097325
268.8803102910856 113.05267453529063 343.3881733311971
107.58328129498693 213.87791025515338 287.71293597745336
147.62152921363875 141.16601374025439 175.86079054618244
276.0903839647064 73.43711391043364 277.87545243212077
196.06572547397508 129.8174908239691 364.5758922232043
307.65091901058315 106.97970467055758 333.09103145712
83.71969041994376 255.0184285932788 233.30193796830943
373.1803868671611 130.4924777672912 207.40293867522126
318.68721773737155 229.25287541430382 115.92601595292274
119.01940851145605 204.0303122734825 148.51568841162143
285.046427757386 108.63749662311609 150.53920231131377
142.3613310721096 243.70205461450342 372.48755393522566
325.7832073246509 157.10662095751778 377.2358746807551
177.04643213275634 94.77298283290138 294.4867307934077
397.70417727096486 222.3347628465006 302.4625751472172
187.87356159752846 230.07085036699888 97.3019059893626
415.2847155230533 255.82721775180374 143.0025363811571
326.0114686916279 157.33646306631874 129.09286170350887
247.58351365382924 178.31559682125751 391.9668452579838
248.30097669817496 270.63705317110924 399.03410303195795
438.3054013344318 307.78432863340197 312.0916311432298
236.78638403366173 219.29906795176365 108.97574456446074
324.38399999517173 203.4362047378386 370.8522639787678
352.8017077305066 123.49248284710949 241.20999419351136
230.60450411526247 182.9567559702099 369.08022606711745
291.5349830953161 220.06894422781744 127.68334949794941
308.1967742035526 229.3739677267238 123.27817847575224
243.8498655985852 179.87829715774498 371.14827866076735
422.30009890999975 299.9187824307956 271.48102085471015
348.71042829189673 129.85631440185983 235.11497539565588
319.2692946993861 197.40235535081624 362.43940138170865
233.0910049767444 221.707576882476 112.32326871382385
427.46316499777737 300.513337406923 290.775783710308
241.4423878307175 269.3906469677352 394.0201914446692
248.84264648895635 177.64232491257934 383.31589053119376
319.5793924646056 162.04425653470804 132.84654312391666
416.117963905681 257.74961895328187 155.57839644009377
190.71301707989886 230.39317572666315 103.2284997730412
394.32272634017204 227.46416885395752 299.70762610622864
181.58204776968793 100.40580275152746 294.1477465272006
320.113761056901 163.34481579463954 371.70376070630016
147.91342263222555 244.40036185540035 369.30174253209196
286.9356248477652 113.52753660361793 155.1109614082315
125.69874431680869 202.31160625751477 154.00837857325007
317.7504180531156 231.25091221170192 118.21342036523549
368.5830758183487 135.45903394512118 211.44117968292528
88.83604128478221 252.78971001365076 235.63750825381186
298.76662572743453 112.94258248031383 331.04484980793245
198.61101587888587 136.17212961314902 357.7785936710417
278.9816583482385 86.16194435421447 277.0773912467266
150.6797668889569 148.4723942352686 178.96691371733255
108.11287686514797 216.4289398026913 281.47325870615435
272.4248144669419 117.64914450966488 335.70973208177037
169.30556667582343 231.24778398502878 377.1619977412365
165.39166285312885 242.1341577761261 367.7049925603552
278.3523747156955 123.33466425606709 327.18989755055765
109.43751939010458 220.44302871473747 273.7695881628037
153.97260085842893 156.10633097988844 182.274689549691
281.43989173629166 99.0343481733204 276.57706227569173
200.27365730800665 142.13467240029743 350.0617080100382
291.901051459791 118.91720528368114 327.5980223893769
94.87045129895701 250.3992911966438 238.17785186849082
363.7942895430494 140.18512952995556 215.24090122721162
316.8149068454774 233.92349435745587 121.13945346376718
131.20502584539258 199.863572808919 159.38493023977801
288.3161958260497 118.92416747795878 160.2745815458186
153.94480983832233 246.4739706394011 365.84139443835807
314.38553656609406 169.42662383314422 366.0561415265286
185.0276337039233 106.15586188488105 294.04126239486203
390.5234887542841 233.18276814035428 296.52985864589937
193.69284291116483 231.02591423460913 110.21269031995026
416.07821246910294 259.082461831637 168.69138663639657
314.6864696989525 167.01304249932866 137.0128423658127
252.18731644307078 177.09480755337785 375.9242572458024
233.93426977395936 268.0534946338005 388.0295896968301
418.3826438003562 292.43325037776896 279.27022290675086
224.48557201980927 225.6609098081449 117.5351832033588
315.0227065374227 191.63305560329746 356.5708445824228
346.8107009461288 136.41861382353403 230.2551810625002
170.5744755041033 165.93146164134075 197.59490598233498
348.9492777221197 144.28786547108274 225.2961664996682
309.1235796425909 183.69319420334588 351.6942084250421
206.55806346041393 231.5738432230308 124.4719988738687
411.64242291609844 284.3164496245553 277.4868864652763
226.0216038116984 266.68000916102335 381.30795518084847
255.72215177053397 177.45667647543965 369.3208607335665
309.5776432265611 172.33964504629805 141.92114874448382
413.9434311634406 258.9582461744254 181.68211811072948
195.23286256666188 232.48566469729053 117.6376990780697
386.32392937640657 239.40687389989773 292.9528966971682
188.7004280866972 112.39320240305338 293.8944983404409
309.20883299536945 173.38036090262162 360.32321969561355
159.8706207771094 248.88933857942118 362.7717735152281
290.17801288657336 124.76842364936599 165.3447005071871
136.30786198229669 197.2063563009045 165.45151972472786
316.2957855864434 236.7279695710245 123.65550866928608
358.75847869850367 145.49697845356283 218.1519755665238
101.7075978886575 247.90741463426272 240.88717850957772
287.52970892534023 124.85642976629397 323.1114867752415
202.33943337129847 146.6917353570047 342.29825775229995
282.65867932568176 111.29779680218759 276.7393973861495
158.00345812117948 163.9508256124836 185.82336669392987
112.34026016875575 228.44204497056018 264.4085883376459
324.5690390887223 204.97237275861437 159.05051326203719
308.1119118433515 191.51235491499162 158.42609455857323
115.87614426452981 237.04769362349404 252.1914603087135
209.543317051991 163.92897736542668 325.7241927245609
160.98015166565523 172.7850053772145 189.33375142301247
280.5417691951517 120.97979112385391 278.59713681258467
204.64173889440423 150.56727342589738 333.43827475052404
285.02734884420363 130.60222469723143 318.6727384181418
109.07899600245413 245.51716836747164 243.45667913944607
354.2327799704384 151.18177996059103 220.58198787130982
315.7179337266005 240.35385053891915 127.32117567613471
141.9687640909234 196.23741531263812 171.14359977210296
290.75436086651956 130.31967106994338 170.5164439192016
165.561915336352 251.72180176376256 359.699368809408
304.01815997970687 175.53297872651672 354.3672634755968
192.73638714070313 118.63485289665837 293.3464086178837
381.76160151763816 245.85839653200358 288.90078730186644
196.95591195535422 234.0528767646417 125.54722914792099
408.9785119377705 257.4862763899765 189.92543492669301
305.3727171872442 177.65687765307132 149.56251867724234
259.8266010699586 177.95569219052175 361.91396313921837
217.88416816771067 265.345862114519 374.07421204415493
398.95706169197126 274.2539498382521 275.41817823455904
379.99478933472625 263.30111127983196 274.86137535223753
209.80872189686536 264.3062776361185 366.4358605581825
264.37239281827215 178.7417410879597 353.7227967326827
300.7195744925554 182.64373871249973 157.25885831541697
403.30306376690487 256.83607485995043 198.4018674973264
198.3594095576951 235.6185920005988 132.7723662412913
376.9390771583821 251.3381791292547 283.72413978384344
196.96969885120544 125.24050235615265 292.7566467173757
298.56367862622983 177.0956501814284 348.75736006795245
171.740777112941 254.78181384479393 356.3074893135695
291.2966086544755 136.21791169450634 175.86239814813382
147.52478705763517 196.34727380898076 177.02246058646259
314.9909239996344 244.75493191821562 132.30117762059436
350.18143912340014 157.22605582699916 222.3606014697717
115.98768789099164 244.2451919758114 244.20588668621264
282.75694951085325 137.27333489420084 314.58553873633906
206.95415184740443 154.22925080678803 324.4526508953842
277.1216535768901 133.60831701279068 285.0652180615226
162.72905133896663 181.99208488092725 190.72272311077666
161.51821970388625 194.59842078798096 190.48756374259878
272.89298815368414 149.5512714420806 298.82289500130236
208.60552118221176 155.95666966066221 316.3767515904768
280.6666311048221 144.6150571740427 311.06608614598906
122.58715708571282 244.07772354261812 243.81573561203396
345.523450820496 163.57315993986606 224.10090198530926
313.9817114902344 249.76734854298303 138.56850217566435
152.61786177776364 199.03282260235358 182.0532490759534
291.44661855243663 142.52532935997107 180.37082668823962
178.3076779598897 258.02901244714155 352.5947072580273
292.86482959892083 178.72753147400948 342.879979012044
201.35588009319954 132.15735982223498 292.1276280345545
372.26974175154646 256.6458727418076 277.0904394760005
199.86051941747147 237.2977614137568 140.50827172119367
397.09847902709396 258.18369563330907 203.65307750297814
295.3318566243945 185.27198083880197 163.66306521122007
269.47655303493593 180.36814527872176 344.8501361620934
202.8143637453599 264.6370660230575 358.2925264114219
196.48931109296979 265.4183123253905 348.63383774845295
275.72512136881534 182.11243537359547 335.18493578006513
364.1845085312173 255.6295871589976 258.4069558168318
289.2464848801342 186.06959794415468 171.27656554012927
390.0299151870621 259.9435323981362 209.33875286399024
201.45943944194858 239.07361586303534 148.7039918950237
366.90254956928095 259.67328779152894 270.8568382003171
205.4035114326768 139.414349820783 291.4390305935871
288.0523309808599 180.25370119604264 336.6210245664599
184.6793265884106 261.4988891748605 348.15118258133845
291.0714264023024 148.9088146905388 185.1644527532048
157.4154310539281 202.66979562636718 186.89447958564688
312.5236018139319 255.16274862262676 145.88145111552214
340.44477481693815 169.86476258598765 225.47329405846628
129.68014818962257 243.97147810536356 242.4348423378741
277.5244074337935 152.14001208274067 308.8325262936021
210.45271205496596 157.58489149171618 307.3007537760575
212.6435574356214 158.10928652077772 296.40379795556913
275.0635826795708 159.49149209277354 307.78300388140536
137.53004535742056 243.94022280560623 241.1433263626047
335.0370876435627 176.03355052511327 227.2355722381121
310.2813216911641 260.6445582261106 153.75079550877695
161.95871235507582 206.74343147974335 191.49323280013562
290.0062480788857 155.163596707487 190.1771725462405
188.49911240030957 264.2405903657252 342.84036562467304
284.36561154277234 181.91724529897664 329.9422653186879
209.40672353224988 146.6433059545706 290.00809468417043
360.96410048725284 262.70492726586315 264.7369211990277
203.091295202132 240.94233619977172 157.32585172077492
381.3454777103903 262.05860963851404 215.2189304066474
285.3007571537078 181.3937803414958 182.38439296928703
283.91326759845794 173.66944441784352 192.99135167346336
368.1113256180252 264.58999674746923 220.7587631875004
236.67171203112304 275.55918043829934 170.04507486929916
204.09599139529033 243.03560367226925 166.58382476465056
353.6132026438528 265.56897116193295 261.1855403046813
213.25338644241438 153.4950743810402 287.55475322883626
280.6169722871895 183.68021906756937 323.68960354281353
191.47274759352422 267.19902505357425 337.28076696428843
288.4913232152592 161.34097437663988 195.31291081698055
166.72852871147617 210.79111338458245 196.459990441883
306.18639023788467 265.5682574890279 161.04724370444424
329.2768087617547 182.37694606207992 228.734860182613
146.00733903151118 243.88117567875682 239.96331803125292
272.50920168257466 276.5720300600614 159.20961503379883
272.9189549749361 168.2454994715185 307.80041992463487
272.26226459948657 179.19557016927703 307.6632966570937
288.44711481311873 273.0608588036973 171.26877546208425
154.97232708643995 243.79533752656224 238.86633936211888
323.20631075539455 188.7902731951687 229.65498589403592
301.2104805955369 269.1378100149952 168.22253579949773
171.68608771165808 215.057982733943 201.6030612552672
286.3471849670117 167.20601671231293 200.32377855039815
194.8114164608607 269.9039047688566 331.3439686508398
277.00016984324685 185.6625232756053 317.4317316350876
216.78753941375587 160.1678013016354 284.79651910771753
345.4461155386218 268.559659973411 257.18656127871157
205.1773055424003 245.1550586450557 176.1092210079979
221.5045410353591 267.04356981410814 185.4855051730169
349.5792394072583 269.0685026322622 227.91766551064472
329.9833932737824 272.7573436698713 240.60786138544938
212.79062197620487 257.40532943571645 193.36979612666795
206.28750599543457 247.16783639356458 185.81716271865264
336.773640836191 271.2837506785795 253.09679547343927
220.4464939811952 167.0648696243675 281.92726910127453
273.54310085764257 188.76706799855708 311.7956868883399
198.28181253118973 272.6813591679641 325.1141835522591
283.97951097944343 172.91789418615025 205.30779891097436
176.80950920918337 219.5039541557629 206.90069154311158
297.31431270344154 270.9452126199558 175.4839290892892
316.5940640768436 194.769833616683 230.38963238143785
164.3240624096979 243.67440925872197 237.82517276999465
173.98793600589664 243.44369245178993 236.77497211504271
309.7004400166778 200.7792098843975 230.63151349928944
294.8173588579876 272.4217995462192 182.8689359634958
182.07961463677864 224.0868319261597 212.32472197194608
281.4082786611341 178.6523338492982 210.48452227289698
202.1496345025047 275.36905885675674 318.7350542762243
270.28829313017656 192.08704495669278 306.1166863621295
224.22793374246191 174.1750837756682 278.9876746934996
327.8206892680974 273.6801050138286 250.3125823195881
207.09206413488425 248.0628581033016 195.38631580724035
207.26278077735017 247.93626516509136 204.51348437753663
319.38846331341864 275.91203525100076 248.97391660542434
228.36923437199016 181.56644655970558 276.3829617886704
267.22243906984295 196.04467767788353 300.21183578659685
205.41317400706012 277.989215003454 312.0947852269835
278.7438811836411 184.90910000632874 215.54881511762775
187.57314186447977 228.632052768713 217.73343246688228
292.14180335927665 274.1472414079608 190.92189403558646
302.65024345391475 205.76434920417677 231.32981760530672
183.93673071633208 242.4967405745899 235.30134942719593
193.63394934068256 240.88108987258585 232.48864034626456
294.77105820356564 210.20727238583945 232.06238753536908
290.13460819710224 276.0784250116144 199.47932473595878
193.2941932890231 232.6048350132756 223.0669848930806
275.74945107324316 191.30601254650338 220.1510464657306
208.7847939588729 280.65527889410265 305.2177640767696
264.04297206793285 200.14724142935265 294.0908121811432
232.37640959862694 189.28330933118193 273.63979926413606
310.34125594011124 278.2473248982617 247.49450915144192
206.9818281308132 246.88579621914064 214.39328446922025
208.11391630850164 244.503849628282 225.2170978087648
300.84472766573526 280.64842359454434 245.685760664604
236.47450492606458 197.13652089788528 270.86601690153054
260.99977725501265 204.30098385324504 287.7222055395534
212.66465255181924 283.0790624940703 298.38593561689424
272.4494256420489 197.46867207843346 224.3695230924597
199.83505613875775 235.3547573833089 226.9507399485362
288.86884584589194 278.1111508067664 208.0321625883807
285.35641493702406 213.83935728005108 233.02767044093508
272.35488984809274 215.24601578164376 231.8207731740847
286.5143952286856 279.7257351510584 216.0257679744252
205.8855614930258 237.43362648710016 231.420817594406
268.59061600995085 203.2877610667709 228.48581107643417
216.57532241648417 285.5824603136852 291.2472858669056
258.1345827742165 208.7631293556093 281.3131250902733
241.14597406612052 205.10677933350937 268.0125613133159
290.8564233395169 283.12065329718996 242.73335960482666
279.2875233252683 284.6362508413311 238.22966504806672
247.3361057672249 213.72568461478693 265.9531307459192
255.9540708830524 213.53309145280923 275.3581179973365
220.5143500459801 288.1003410185517 283.85536497467785
264.8548454172598 209.1391376002446 232.57931008227857
211.9552946332626 239.36644919168367 236.0833433021689
281.96833686958337 281.464620335896 221.60034844420548
269.5852082430151 284.537217839047 234.21971216288392
276.8008051388789 282.9376013449628 226.58095149475636
218.36437978060806 241.29218246995245 240.35269378358743
261.32378686992075 214.90831811546667 236.64612414316278
224.39927054616132 289.93280399895986 276.0246624024096
255.0475527312147 218.58590938836556 269.8513005532094
254.33121288041085 223.662119944504 264.3852937842885
229.04276725706256 291.7730649613755 268.17224608638134
258.017431865071 220.88810573993575 240.8252179257249
225.32378385850674 243.01701089047256 244.78244824340624
271.457705749388 284.4835702684108 231.8179067338127
267.2729993297554 285.8423999152551 236.7987281518375
232.57857876081175 244.8723315901048 247.9686621282462
