250.85316680309165 298.04614532097605 139.85530774116324
84.14991575181872 278.75345418374263 43.79277144768391
241.22028812565563 252.94572826245133 20.7509584839053
464.195146033207 235.02166325700688 81.93049843299292
156.79234185041344 118.54779367281763 237.11245678126076
313.4639208819409 55.86538328139399 29.918929043013588
468.77706763615856 302.23658720504585 158.02949396302992
440.15151673138723 253.6715871334559 264.0337391089929
450.5539996139058 124.05222234993934 226.85635209643337
343.8765047113614 173.22091573113056 61.785299533719254
84.883915416627 -55.17953526688795 207.4396913377025
77.86807685100459 57.04188191862093 356.1017255464737
458.8740606000461 11.579744217756286 201.18266324140774
65.4901368766851 152.01707367372325 407.7692442230536
314.00680165612226 97.61065536803643 365.5758338398995
287.93928135976506 16.37746910418453 164.05097456232522
402.6302572398957 152.98854923321977 139.27783955299924
444.16846498256484 83.25450028139603 277.115165932416
389.68522254385357 139.24770873706458 145.8595221977224
316.3270885683154 80.88556679187118 376.2506196517092
387.38069637176727 97.0379569906428 75.35510385876204
73.70442034509178 166.26064329134607 414.11699055502345
287.0589862610259 57.21406893771898 311.71116195344297
398.3826528536322 84.72680601900328 395.55375174890185
287.91234363198265 74.91522587675053 442.515601127298
351.4453329421955 -1.635739572007619 205.67811299567418
416.135527011582 97.72799396088722 106.7928203057663
64.99431205789386 49.343385486952904 404.9655081031249
451.03520955830015 43.34775104907428 341.7152428087503
354.81550597655314 66.12776016171766 233.94768175471862
229.9039178461409 80.6675822774183 444.44330222669936
397.6174963375098 81.19075330556296 360.4214520769871
250.85316680309165 298.04614532097605 139.85530774116324
84.14991575181872 278.75345418374263 43.79277144768391
241.22028812565563 252.94572826245133 20.7509584839053
464.195146033207 235.02166325700688 81.93049843299292
156.79234185041344 118.54779367281763 237.11245678126076
313.4639208819409 55.86538328139399 29.918929043013588
468.77706763615856 302.23658720504585 158.02949396302992
440.15151673138723 253.6715871334559 264.0337391089929
450.5539996139058 124.05222234993934 226.85635209643337
343.8765047113614 173.22091573113056 61.785299533719254
440.7581848142314 9.337010304793479 45.96258805355818
84.883915416627 -55.17953526688795 207.4396913377025
364.53963895051925 97.16275418155058 101.47140229342092
396.3341171950343 92.16848636690644 377.4690994599898
244.64003759607908 91.57382274077379 436.3959231011361
341.1719462487137 16.45475718908616 168.28964078545627
402.32007855180325 137.64036671013136 104.48072456044969
77.86807685100459 57.04188191862093 356.1017255464737
355.87315478004354 78.77734316199212 229.43079211332713
448.2730919035441 54.93098882498884 324.4167677278144
72.64166469854597 53.39139166320638 375.01399516973225
54.827921497189735 284.0729961311157 430.9910280397318
408.54923741280925 118.89585556140865 107.51287594371365
345.2613019503702 9.674502207362636 186.57462114814345
265.84152199954525 86.06840270300621 435.618217366909
52.80946562525136 44.37080622883556 57.072097390526515
397.5832466015522 89.49987324889409 390.7362898115345
458.8740606000461 11.579744217756286 201.18266324140774
290.98589183452845 54.5427056361856 304.5364449444268
73.73408385886671 156.8214810018224 405.40553409694485
376.6088405808281 98.75213591477656 85.65265063168975
316.1903584215907 94.7106659919663 374.8684299492087
287.93928135976506 16.37746910418453 164.05097456232522
396.7539366423567 145.1767607168272 141.08818830558653
444.16846498256484 83.25450028139603 277.115165932416
250.85316680309165 298.04614532097605 139.85530774116324
84.14991575181872 278.75345418374263 43.79277144768391
241.22028812565563 252.94572826245133 20.7509584839053
464.195146033207 235.02166325700688 81.93049843299292
156.79234185041344 118.54779367281763 237.11245678126076
313.4639208819409 55.86538328139399 29.918929043013588
468.77706763615856 302.23658720504585 158.02949396302992
440.15151673138723 253.6715871334559 264.0337391089929
450.5539996139058 124.05222234993934 226.85635209643337
343.8765047113614 173.22091573113056 61.785299533719254
440.7581848142314 9.337010304793479 45.96258805355818
356.51732030904066 108.03637924484451 231.49069842699214
438.84183926496104 83.32348397991137 292.6291826756576
84.883915416627 -55.17953526688795 207.4396913377025
397.416728617967 144.07290252881486 139.3994403939936
289.24422636012133 3.5803323800447324 148.3288900241572
317.31160276860976 100.43775454019145 379.21683564817306
366.8185624818037 100.33379895609006 92.01760676757377
77.2398911443628 152.12106968015604 398.25688759624836
289.9454581249481 52.76875416521304 300.05073905499904
453.3850800839571 47.602524595527726 201.81618728829878
395.7213028805708 95.68333747509143 386.43403518553913
74.24278878821784 71.76832720336354 72.72250300535917
253.25906902472965 96.24800566232108 431.72466684800827
339.84720573919657 20.513988369880277 177.43032553237484
403.81848609019306 130.91725412132465 111.09441983084945
158.80931627160922 12.128245606489314 123.16464749182757
91.36044814140557 267.93053352725667 425.8616705696683
76.78897697305061 52.22190502596277 352.8424235070977
441.8934504143056 72.044826157933 308.8279099357399
360.0865126830953 90.81446778285542 231.42243803651047
169.6961704101011 0.9865600123729745 179.3102118538959
103.10462967507496 114.60378043595222 383.05427224038283
143.22809554060888 37.009282013198096 362.9857265445673
250.85316680309165 298.04614532097605 139.85530774116324
84.14991575181872 278.75345418374263 43.79277144768391
241.22028812565563 252.94572826245133 20.7509584839053
464.195146033207 235.02166325700688 81.93049843299292
156.79234185041344 118.54779367281763 237.11245678126076
313.4639208819409 55.86538328139399 29.918929043013588
468.77706763615856 302.23658720504585 158.02949396302992
440.15151673138723 253.6715871334559 264.0337391089929
450.5539996139058 124.05222234993934 226.85635209643337
343.8765047113614 173.22091573113056 61.785299533719254
162.7745598114253 41.36360113109103 361.85609272792306
440.7581848142314 9.337010304793479 45.96258805355818
90.99594010627379 130.0156855009631 380.5424591823798
285.6491883042903 41.694541962827486 283.9557969039554
169.89606112992 14.696511971642579 161.63962838325807
159.55718740235608 74.25897101006335 108.08328367699251
364.14864071406816 101.3113999421959 230.77057686423726
436.1484183267149 84.82473059270865 302.2287293648738
232.01589443974694 8.806266850917478 197.73663726219692
78.13950535374649 48.62740225661471 339.96048566988196
118.20317723890423 254.20556369212244 421.2456864693828
166.98374938032597 14.555446398146124 141.057799825082
402.13513534563464 133.60786127038423 116.58637764275177
336.1675409658095 28.691239457343208 177.7678151911611
249.66254913634938 103.06607441825523 430.6512394408898
91.37193691333121 91.3571859841526 83.84534062096812
393.68952405030683 102.46516400831166 384.6332626418089
440.5859683556848 80.01300968241473 208.2387789969224
288.09098600799575 51.337474370315775 294.34621798041314
81.14728839900937 146.27271955616672 390.4958196446221
362.6237654491044 103.04177867092174 90.1714726964662
181.75990033715715 36.61586209336919 364.8106781610067
84.883915416627 -55.17953526688795 207.4396913377025
317.8906960501233 108.69627812050106 384.9161659876266
290.8913745151784 0.48170516381694295 130.19396269669414
397.45151316295807 143.05560713294244 136.3475170884057
173.5827500127822 233.29995475023122 414.519893272654
377.60532868847434 123.32527824215774 200.79348337816148
250.85316680309165 298.04614532097605 139.85530774116324
84.14991575181872 278.75345418374263 43.79277144768391
241.22028812565563 252.94572826245133 20.7509584839053
464.195146033207 235.02166325700688 81.93049843299292
156.79234185041344 118.54779367281763 237.11245678126076
313.4639208819409 55.86538328139399 29.918929043013588
468.77706763615856 302.23658720504585 158.02949396302992
440.15151673138723 253.6715871334559 264.0337391089929
377.55567693715057 118.34448134166792 220.0679349566123
153.69304557398758 235.57283202826386 414.92166946669
396.27450444289815 143.03520349981173 132.81544707225385
450.5539996139058 124.05222234993934 226.85635209643337
343.8765047113614 173.22091573113056 61.785299533719254
292.21644249468585 6.242268524107347 116.68623827049326
317.21730838520085 118.62213672998926 390.9503794822742
76.04372616422343 -15.09231496854698 200.6117591433611
173.2624906782682 44.769618180703475 361.3158590562316
440.7581848142314 9.337010304793479 45.96258805355818
355.04496849850455 108.90343722602735 87.11356933296874
84.77973171236997 141.04239437488 382.34822819255
285.25244149213177 51.119589666687965 287.5496004553429
427.1484762595627 102.54575601674256 216.0836040345517
390.6290950711827 109.69384041271397 382.28877455393786
103.17516208101375 103.60355899543049 90.75837451478226
245.84659798433663 111.45432362965227 428.406090882291
330.21798175445 40.19025856237485 177.3181080436638
399.405247779366 137.69920811534388 123.44548116746275
170.03290339979463 20.011096393495173 150.916027785452
135.66136328557334 243.80335211152249 417.5729039960314
82.28332006194522 48.771341737670895 320.3902391080459
428.39587862414 165.62022324394914 389.98301617827974
250.909064799633 23.74461403863263 208.54821439106084
431.6795846042224 92.31609800207696 304.0201801089813
160.03413680637084 63.473424264305514 113.34297301696628
369.73405340000045 107.6065912730395 230.01176034542718
228.82719548429256 138.20818516631783 437.49631815661854
115.20969634505641 147.95323084196852 94.40337856827584
76.89851328150466 122.84096362839948 361.2817199280911
326.630773865335 151.78270689271216 416.62426893370616
250.85316680309165 298.04614532097605 139.85530774116324
84.14991575181872 278.75345418374263 43.79277144768391
241.22028812565563 252.94572826245133 20.7509584839053
464.195146033207 235.02166325700688 81.93049843299292
156.79234185041344 118.54779367281763 237.11245678126076
313.4639208819409 55.86538328139399 29.918929043013588
314.21317367198674 141.7655658563774 405.4101756661884
83.3504927944004 134.43055011809366 364.9368387703875
120.90002476024911 131.84685191174597 102.61724391602212
230.9610550547696 127.22453887314924 425.4857950550362
468.77706763615856 302.23658720504585 158.02949396302992
440.15151673138723 253.6715871334559 264.0337391089929
376.1031354203611 114.33088974898261 229.92160659322008
163.64640840869367 62.14481410987316 119.46062798588207
425.99400275536004 105.61538847544561 306.50769646177713
263.0668686676369 32.96694858051749 214.6734243071746
417.0331621850554 158.07863607709857 363.59207039248207
89.94964543917078 56.09386198430043 296.748453101879
433.76205783856005 239.160554674014 371.79847870562025
143.90725281833605 237.12219636919994 415.03472999624677
172.76605518813173 26.735728236204707 153.4600506760119
396.17914514752835 142.18928118677746 129.23839978225965
322.8352165835187 52.59108762236624 175.62112857946855
450.5539996139058 124.05222234993934 226.85635209643337
241.9723659175966 119.33834345033817 425.12886447929134
113.98332565272976 114.43669102452233 97.91491026612186
387.3361219893957 117.71301301775368 379.7481444585869
415.4195003077967 115.23099738572085 223.60037642108543
282.6435566087788 53.15674679234678 282.4539074376368
86.36086609203734 139.1944708482621 375.72993120782576
345.0653254248152 117.35202716842575 84.00247209812923
393.0139557888366 17.244512341283983 38.062256625497646
152.50603927102702 62.44688277029865 210.28574330002075
174.6546565468318 51.8591552001443 358.85241459839295
74.2641006062445 29.636784577883205 199.13185437631768
314.56553405368305 128.49241344172484 396.1260248042169
292.85723395188484 17.793857499315898 111.3022930121661
192.71650287493748 67.38178468729 295.6606568015026
343.8765047113614 173.22091573113056 61.785299533719254
203.66924051774637 93.50468817127182 359.8309783949295
250.85316680309165 298.04614532097605 139.85530774116324
84.14991575181872 278.75345418374263 43.79277144768391
241.22028812565563 252.94572826245133 20.7509584839053
464.195146033207 235.02166325700688 81.93049843299292
156.79234185041344 118.54779367281763 237.11245678126076
419.52820639862904 235.83897769661922 334.6459216591213
319.1970034180933 130.68877332797973 76.13086168100541
313.4639208819409 55.86538328139399 29.918929043013588
188.0106893147865 64.46387097150983 231.74778632429343
171.199537074274 100.61640192277666 288.3961719422699
207.82588878239926 110.89734102904704 379.6932441935949
363.7481489329107 179.1189919580808 61.48653085878192
181.73936818342452 83.96250709793622 291.0857356040757
291.33563314126565 34.2131756796764 106.0992095315749
309.0912238458009 135.83664140535024 398.95593635178835
78.24135378189587 67.46840398204415 202.04320397827598
176.56928828922287 63.12617117010066 355.54156549295743
170.18992292297335 62.70208653579887 221.84408276295608
349.1294224485715 34.02747060362383 32.67768075019325
334.8397921956153 127.14346643645169 81.58641690570118
88.55660683072209 141.0731558877794 370.69716402786287
279.34316147683023 55.844729683283994 276.16389267126135
406.5440758576716 118.40911851882183 229.90392638446056
383.85348012004397 126.25987929216654 377.1007457108277
122.85458845442751 122.58789539039483 105.0030064985669
238.89487562609554 122.71813173884294 420.9462119481011
451.14676202199024 147.95379540700623 213.80642001552388
314.9288954086984 63.565329466959206 172.99958095799624
393.5813340625425 145.0069070274399 130.85038731826953
177.03108129232538 34.80604358890311 154.35250202198696
143.0737112918311 234.4358546877973 413.7635967450896
425.79504214297265 237.82647466826504 353.5105901337783
96.57074936752838 66.03791069188198 282.7001597157774
412.9390623136293 155.50880397355354 341.9391479057888
468.77706763615856 302.23658720504585 158.02949396302992
271.1246409305064 42.548951885876264 220.63156894854217
420.5542914392112 123.78729374883726 309.12487459258875
170.9031950242716 59.43085826496038 132.10396922664768
351.5573086541432 131.09614110009295 372.5313644737157
381.3044593186072 119.36322275212059 232.30126175315067
444.67229525338166 259.2121448614291 279.5493852930442
190.26047877844607 127.28147465774134 126.23810117740382
250.85316680309165 298.04614532097605 139.85530774116324
84.14991575181872 278.75345418374263 43.79277144768391
241.22028812565563 252.94572826245133 20.7509584839053
464.195146033207 235.02166325700688 81.93049843299292
156.79234185041344 118.54779367281763 237.11245678126076
174.42289826980968 139.95982627176633 124.02410140513412
440.53543421284076 269.29096211937144 292.95565298003356
387.18163892417215 124.9436661215546 235.89394039727395
367.12964234067226 140.8816567945017 371.76964481025055
133.05726722720905 121.84147726127865 124.27128674396002
180.48468155730177 54.94674271910044 149.46759142974753
416.1586449432297 146.2843676340221 313.1149491562645
271.94167683390606 51.34437325069832 225.4928859983982
459.7890573483971 272.20504982821535 175.14962587388507
413.84094969649175 156.29882694991477 328.2706781365342
101.1352312658368 75.97458357761892 278.43809396972006
419.39070436719805 238.0456356349822 344.97695602859767
142.1917292118807 231.16467585413668 411.81233043007006
181.56483425650234 42.65361847020213 156.50070183306528
389.83357247503807 149.54212934539555 133.3429568323988
307.4308324709989 70.53877532063458 169.79596156901906
446.9651720598185 178.94852954821286 205.9422979271878
237.91698003463935 124.66371848683666 415.88435661994714
127.86132974984655 125.64316027549236 111.39803333732736
380.02188054258204 135.0740281335254 374.70070321362357
399.03126357302943 122.80659912405643 235.52267584513325
275.4393515025044 58.916002024321465 268.7633634422429
91.5076644626354 143.91264824537 366.4339287557093
326.5648945066792 137.21020564604865 80.18992945403716
313.4639208819409 55.86538328139399 29.918929043013588
178.71189329936706 65.7168341087161 230.49652079841667
415.35959553939097 186.57325553153058 100.38244034730641
177.89321124767767 76.10873358511029 352.3589548584902
85.08698190296852 95.97741739560448 207.15942153920523
303.3648913562508 140.13387915420432 399.41349526413336
287.26315455589787 54.69463936469103 104.48915304144329
175.17436411473133 91.9592367828346 283.89391313768886
71.00109714849694 181.59191212385093 332.75818537570063
164.3777453345388 155.2216554741428 116.13158804616529
97.70461301627871 149.650949931063 219.1536521603915
379.3135473838699 192.18394167383116 66.67339539786911
217.53684071258348 122.87326408670691 393.2460925022216
250.85316680309165 298.04614532097605 139.85530774116324
84.14991575181872 278.75345418374263 43.79277144768391
241.22028812565563 252.94572826245133 20.7509584839053
464.195146033207 235.02166325700688 81.93049843299292
227.66769593624093 128.2849265029644 399.26673240588053
386.0708913252032 208.19839373654543 75.5641243595174
99.32200401154856 136.17265796870547 207.6943926003267
156.79234185041344 118.54779367281763 237.11245678126076
430.69824236840253 222.95976411760392 307.80833994494486
166.38097318523364 146.2364663559671 122.92060619726499
83.04516456684684 170.9527485399516 332.92527095350437
173.7626412939282 91.39273524124201 277.0408580572691
279.99737580829793 79.5696865629556 108.90368715575967
297.05963289604733 145.28986386934145 399.186429318755
93.73548279029376 117.12504121594051 205.75186771806764
437.5009242108379 274.43400214187176 300.26967853482716
177.55072823673675 88.15066405486904 350.24972488019176
399.20128271179726 199.1275262544813 87.3319280890215
178.24430558906408 70.26446720314017 235.0455325357868
287.34788731083955 79.61566893756834 29.42964656757796
322.95920349914934 146.26325472826875 80.30849353277821
95.04396566355643 147.37083411848522 361.4225598390734
271.13134635791516 62.21035879738105 260.68114613098277
396.5459829286366 127.6392241757836 238.3008099658231
376.15221416360725 143.9863992265999 372.2722794429699
133.5961533621021 129.08176831554613 117.82897161796089
236.83957941982413 127.1283428597474 409.47831876409293
439.71672985467046 204.95765552051245 206.1860811482321
303.4794970412248 78.13073327727274 168.35497124674845
385.5575062635524 155.9913957551276 137.36010876110856
184.3450392905974 50.569555837327265 157.59758552141975
141.56776263425343 227.9473335713292 409.23785695752076
415.6911725435757 239.41909524715447 346.00112603305973
107.41182186452654 86.28911112411048 273.17999878068173
415.34836498161775 156.1115384013284 317.96952839092705
446.369560261342 251.12554883961243 191.79756158448507
269.3466570116984 60.74002780895743 231.8553039745453
250.85316680309165 298.04614532097605 139.85530774116324
84.14991575181872 278.75345418374263 43.79277144768391
241.22028812565563 252.94572826245133 20.7509584839053
307.61075983754733 166.79279552408616 77.70835320974896
265.972894108649 67.48115847106212 239.53578133679787
433.51579610949017 239.26712550723823 204.61774689781174
464.195146033207 235.02166325700688 81.93049843299292
193.3757617108701 137.53530305048417 100.8606903695596
372.7546139139788 284.55797352560376 392.4756854716949
415.1127210875107 160.90831623567863 311.9288034287258
115.93619101678534 95.47976260536603 266.263330381821
408.12796747771245 241.82722464957786 348.1507836069207
141.69200899576708 226.00512287313802 406.36950350036483
187.39716884298747 57.09479083920953 159.83901454204087
380.8574065279198 163.6713970148495 141.8001626609209
300.7988182475444 84.32757972422982 165.30250710197672
432.306039855309 222.14784694621483 211.14155929956496
236.0780141347672 130.25222282472626 402.6596894004982
138.79648694094348 133.6134468794575 121.85419432488587
372.7862259166725 151.66127175170894 370.17746358762014
394.7003913202577 131.4187213274838 241.22958359485605
266.6933679553112 65.840012764702 252.87414749136357
99.27164981306979 152.28817852235204 356.45684738779653
318.89330729272854 156.49240225474256 81.30048348825535
455.985426725475 303.74263676806635 416.2289343975505
263.01332438533933 108.82498529794462 37.12726497766929
178.29402461040695 76.34539233573568 240.23154317959379
387.87231678256506 212.6046550423413 82.98921357341057
175.23051006977332 98.27866671602018 347.4073406795713
430.1071145596044 279.2438405092289 298.5900683828987
101.1862987150047 128.88310423121868 201.11914744875278
291.6226391984009 151.21379716704973 396.9031783263356
273.8527951386423 94.53502546536065 112.58296868695443
174.076266846763 91.90223962917743 266.1385636640733
95.64101874576052 162.82903843949606 335.0846131996598
162.59856284688536 144.68543979852788 126.35408895650401
156.79234185041344 118.54779367281763 237.11245678126076
423.99008285112603 198.59946060273103 305.6617797799984
250.85316680309165 298.04614532097605 139.85530774116324
415.41071974805715 182.3993765443798 298.04626948162394
142.11498990389438 122.6810444313886 245.90374102893492
84.14991575181872 278.75345418374263 43.79277144768391
157.09865964632826 142.15947290224958 131.40733529705798
107.088026484653 159.57133759200795 339.6794797002601
177.27603823732954 94.02294703478843 254.24432455510183
241.22028812565563 252.94572826245133 20.7509584839053
197.7104157110184 204.4771508127388 42.13093175494604
269.48691659938373 107.77783423564047 115.39732326738823
284.94470220083923 157.90913606215454 394.38721168391316
106.24901392896561 131.0617388500384 194.8953499995246
418.10181124525684 285.26345410317117 295.166749489716
175.04617915545978 112.10669919926401 344.8723107387427
383.015830893539 222.52668991090928 85.38951836328485
180.24465110905874 83.68200878757656 244.33860559221034
246.52106102983478 135.80081978153174 50.613656674088276
421.93219108339525 299.2988986086517 424.82750428109534
314.9432490415802 167.1305242159148 84.65748117967567
103.64820512393099 157.84890827847116 352.19460938473566
262.8877624986552 70.47449327699229 248.6585129447394
392.6318081279239 135.86072084031244 244.57784639005465
368.92804786087066 159.3643078581988 368.52224534963034
144.620946899429 138.42697223499752 126.61852151090537
237.45090356432388 134.1745381165318 398.89304881552295
428.3385968511683 231.70291203508026 210.6336231383601
464.195146033207 235.02166325700688 81.93049843299292
297.51714218843864 90.37491769882537 165.46709220706555
375.8369444067878 172.1953069390395 146.41016601649955
190.68674852722415 64.22102620142073 162.33057773845155
141.6543369275879 226.119679160452 401.8277966506969
398.1127060657592 244.68354715159518 351.2566260888475
129.10737719021975 111.88081031914908 256.4840977835193
413.5447341897044 167.59927326411005 304.6767616520262
371.4507290893041 267.7443715335388 376.19691435446344
379.3621932161451 212.3497418429316 140.91488130966673
212.57514071034632 152.24614741961182 86.40061324385702
200.28562535308347 145.16812044164428 338.4176908108573
250.85316680309165 298.04614532097605 139.85530774116324
273.4268168385602 179.74099544210418 388.89704194588785
182.45922987288043 141.49002691106065 339.29030606195397
225.74677161891552 166.3596654523929 79.89725995403525
368.38169325313083 198.11175978400448 151.3119242308333
373.6568312653971 256.7835575894525 367.2273746140513
411.3045566974025 173.72799828205527 296.4445677028056
135.12452866851967 125.3195458019411 253.03293707378944
388.57433721101927 247.2298036232045 355.8403420722369
141.93076837595098 226.15455836774674 395.74083659037984
194.18464819223198 71.90227767745995 165.03816204511554
370.13528086300136 181.4321188334064 150.7289772152918
293.5873721196889 97.57539745385215 165.66419009453523
447.5990801921308 235.24153294815108 65.69674566726596
84.14991575181872 278.75345418374263 43.79277144768391
423.05904378252944 235.88155284882333 212.69819215833803
237.93988651130115 139.4004372136551 394.8893689066216
55.94088439316423 282.3972217514828 78.73602885115842
149.29179615399505 141.25243356327474 132.120826639821
365.5576772524133 167.3680604591436 366.5103535136368
390.3203071816519 140.96477338697312 248.32673476494804
258.9629080959625 75.21368421647648 246.06920807463422
109.09525811284843 161.29910348833323 349.25545291193464
312.5132113006415 174.99984306660974 88.76147300619188
397.67285176501827 293.3215851693665 432.11163829266644
237.91565179060487 156.82968390343055 65.65923907911287
181.81183753362663 91.15728532209218 245.53990264823727
371.5807293567996 231.6449247132235 93.59313199452085
174.4974487375644 125.6856059978237 342.3561626643375
403.6853977173377 289.6928634875527 288.14249314951564
114.71060767053606 134.92608651542 186.23026901463038
276.27643092192045 164.3479753247436 391.1042284670047
241.22028812565563 252.94572826245133 20.7509584839053
265.5090117091918 117.48804564013088 122.48314859488892
214.28009319891936 188.59229119877557 58.059812074122625
279.2468271134677 183.0810522952315 88.69226541483773
250.85316680309165 298.04614532097605 139.85530774116324
295.9924802259353 188.8304683896765 96.02330500037061
225.89123645407105 181.35157257105013 73.156968356916
263.21343994852054 126.36402060237685 132.58155145676534
220.86034456631918 259.4716531262894 28.902204992448755
266.9155410513322 169.6558720133667 388.0684123400414
125.64152191892605 140.47946722018145 177.09791652551212
389.0516756120334 290.31613559767754 276.4746668078019
173.0507195948248 138.0439937413807 340.06517924637984
350.77227960207756 236.20294400366905 108.59809716941135
184.23978350965433 97.47025993391347 244.90856131300103
233.28765981537282 170.43183999442732 75.3174139692202
383.15741267359425 287.9200460263327 437.2220905596018
309.55271771296407 183.2069610678632 93.63607395718469
114.67051100490193 164.7908558516705 347.3740123220766
254.62526164592748 80.54765412175173 243.26960041075412
387.7638562457177 146.69996638240366 252.40971227511145
362.00317281194094 175.70879955364535 364.377574731543
151.12000641751388 143.7064735305488 137.70660523643832
64.4186051185002 275.28101535474013 92.06256954982108
238.45273816629927 145.48410199990442 390.38479757143267
416.08493055359844 240.29852897344625 215.58330707314138
113.37595236238394 274.0030935520892 42.101578145430985
426.29188433801806 242.47569064912315 54.81135879360834
289.3185121828755 105.28206761999314 166.33539660902917
364.278077387727 189.79359415745034 155.31727064690082
197.84044405321205 80.05881388595691 167.9329449173405
142.79071790361425 226.43510210733194 388.41850236795227
378.9364676073417 248.48172781823726 359.5212574652919
134.3972351057918 133.97678677066193 255.2075893098002
408.1750933498487 176.03752169950866 289.2460154932312
250.85316680309165 298.04614532097605 139.85530774116324
319.6434658704294 235.51480015445532 131.69421847519536
142.02028594006774 220.68638520006846 369.6952026581935
403.7585762554112 179.20289592390205 281.57913213934097
135.95010731785072 146.92266834759542 261.14505743762305
372.2978050140795 246.39843245572632 361.08125433679714
144.75500736754373 228.01537037856366 380.74009209381626
201.531471552578 88.516705456511 171.09070163468607
358.3993949866596 193.74339492520886 160.44633114115322
285.3580659974946 112.98915205469433 168.44493820599112
384.10966722690296 254.75613976003947 49.16562877474264
145.0446541601473 272.13524772325013 49.669137199451896
407.76873955982364 244.56162293199324 218.8994966279728
104.94965481929054 257.75909154927876 90.19028868112608
238.77357305661312 152.28777778208016 385.5849836613099
73.87539847433551 268.3916465268375 107.40769741547896
153.19243036868113 146.68483924255673 144.3120854586719
358.4380196672228 184.25976371444057 362.01102709030124
385.0248191295771 153.05657686351321 256.54211889756147
250.00638861808287 86.48007363540447 240.20935407878963
120.88832521413624 168.6009604282786 345.26287168744335
305.47155951110744 190.07948720247882 98.5483305239928
363.01413166913613 277.0609677583438 435.11699636018307
232.11591808189308 176.41504808568055 79.49781872508575
187.31806307276196 104.6220091037279 244.00964037942413
329.793115404396 233.20031231038678 117.06032489876571
169.35360773647363 146.47586858775054 338.5348777753438
376.02697003590276 285.03243718367617 259.12538963044113
137.89437635870033 146.88679579164366 169.15002219489415
257.7606093067649 170.88436787118889 385.59784768587434
201.50229021874898 267.18147116119565 46.93245018339139
265.4652769375483 132.1884870975484 148.2439318529416
250.85316680309165 298.04614532097605 139.85530774116324
273.3648349374348 131.45092595315083 166.4795938649513
191.77363624018764 272.5703693949079 66.33673315029125
245.51030307300184 171.04743758813106 379.6573130166143
150.6429301273472 153.2772616950673 163.8423399201465
139.64333286673414 276.22688336099685 326.0903808012789
372.1164150476419 276.82472061653164 244.67134593273659
164.95724397509 156.278190307829 336.8045963978892
318.55284598349397 229.89952595853617 123.27198995927675
191.15304628915914 112.1935238984559 242.90994476979378
231.68369753900708 181.08814430692755 84.07556544017785
336.13174099822163 258.7215419180832 420.14499904130673
302.9302342110401 196.53053498492193 103.34555076973777
127.47804562298923 172.33289430152965 342.32001396370674
245.75354232675448 93.35127871087457 236.9347969280326
382.57097515860426 160.37406834606386 258.8115267998308
355.0016052601917 192.36894570858482 359.63159050191774
155.6099276145447 150.19089804750521 151.5597358315432
83.58956451202424 262.4174446344798 123.80333876939189
237.91301989588555 159.4105756031689 381.48678911266467
111.50278827472138 249.29605674901453 104.3704784743301
398.68838544985715 248.15046974123766 221.66075200674402
169.6266520643812 273.4695807134141 63.52356182675834
350.4793528137295 266.9095228192808 48.70148292130834
281.97395150761776 120.83008230118327 171.44508726238283
352.0111888909054 198.0051734045032 166.0306496818107
306.2119433128999 173.94094733917603 267.89579723830195
204.6987664306749 96.56892580186621 175.21511679530136
146.24750438819802 229.1545100627489 371.9526677074059
365.5603154442498 242.59126606931088 360.2079502947344
141.07047268698065 162.15247509489993 271.2606669520001
395.1787358666685 180.57369653098726 272.9368392317662
372.8853973133995 246.22433703805586 194.51575951261623
250.85316680309165 298.04614532097605 139.85530774116324
370.77078971559587 250.54381544607122 213.81823604047025
383.481493496294 180.11550725757226 264.17368554111573
307.0896053031277 282.9725096035201 48.756592169749126
149.97225877361703 178.06629608456967 286.71046786283085
358.08889240160823 238.2704600645511 359.14157132884986
148.45696201419867 231.7060364346203 364.6048037033356
208.19792999594438 105.07671289454385 179.41308892774447
316.701984270355 171.7047540561161 274.59331179376994
345.1737488348402 202.48579297603263 172.08273932035684
278.44476326213294 128.82740807159334 174.69327449253802
326.1319825691273 277.6450466504666 51.67486856192727
184.68198827997338 274.4754760336502 74.35559571705896
389.87459269419077 249.91713221798707 221.74229813334546
120.31750845095911 241.86970105775646 118.45194253458006
236.59510063402317 166.77937703258905 377.57651930203804
93.47420435598885 257.7726560945642 141.3153232054941
158.8663152243625 154.44898361715306 157.91128593423417
351.4488476983336 200.64095378350325 356.8972649872828
379.7333706558749 167.72944920846624 259.63481120412507
241.5925067363772 100.66925895125206 233.53735284195727
134.48064893939465 176.31445004790774 339.1242671292634
300.13519719272915 203.48268196388904 108.49676094948046
314.0662617115855 248.8141385150653 407.5601260036198
231.5456484241006 186.60101984925714 89.38494126687213
196.47792935725658 118.34435012271885 241.58209520802217
272.2675310213802 187.14214409781835 159.6964249404179
265.0172242349257 240.21986736646042 410.15956570907133
309.9921414739147 225.12587700675516 123.91321337633121
160.0392246804671 167.69447871317277 334.9505860350763
370.57040889228136 262.70965390989534 229.6702885364585
334.8234942512168 190.3453756626281 306.9772292000031
144.0540416091033 254.94081303977595 335.6958761988168
250.85316680309165 298.04614532097605 139.85530774116324
149.35131614275895 242.79357582164076 341.33958782996046
329.6931608253511 185.00095162059742 287.6186714980485
368.0106308471601 253.76066724673657 223.17122405595688
241.84079802009828 115.10356064236207 220.7608280113041
155.70978852997413 179.83329186040086 332.86074900047157
298.9036830834958 220.92043146417302 123.858737290586
281.26143569700815 245.95108795127288 398.8741222901985
275.68055076023614 179.93659751448394 174.67508911550354
203.7392211626491 124.25399151396854 239.36678813290885
231.6180667366238 192.8660986894558 95.3580101048415
298.5213722366607 245.63177815323772 398.4760678141568
296.89352881871736 210.57331494388126 113.84676852247212
141.66428457581608 180.586438877273 335.7779327981276
239.22296230653404 108.51198350197377 230.96246922905328
376.0374287969418 174.90028929924443 259.51005301776235
347.8554367366465 209.02368926909992 354.013266184411
162.9554164280532 158.68969655769047 163.25523133042373
103.61160378349577 255.09592337586744 160.48045955316957
234.90808034044142 173.54019028299473 373.52611938169093
132.25931246224405 236.6502918782729 131.5161443016002
380.501478276342 251.42244900211222 222.17570201872167
190.53207642459537 275.0863195940044 81.30081316470192
311.25546261845835 286.32359633714 57.11236704061003
275.1291034846254 135.63972076825618 178.54360777520506
337.6549215415671 206.50968537040663 179.16594070565216
321.8302117217592 176.93499277020723 277.3533970916831
212.6571246780586 113.63242491101198 184.0832346751746
150.80889919220485 234.17361712666914 356.3242640640348
350.05509191507144 233.50613789964527 357.7695118328899
153.38345498069322 185.62718773577814 301.87392240797146
250.85316680309165 298.04614532097605 139.85530774116324
155.43911434565481 192.23859965005735 320.50492087941285
341.87538508118115 227.9762014593938 355.1243588229633
167.67762927174823 175.62947161492966 172.9792226864803
310.99662132902137 209.13986406609737 194.9660160152157
152.03361926319056 235.05243184628307 348.16003456817765
217.03555590212932 121.94500523849068 186.78666885683353
326.6594924411725 182.35498744621046 278.09479654990423
330.01211735175946 210.703548779321 186.89018138719499
271.561706359575 142.69514032449328 182.64798577965388
305.9030044265606 292.5143438606252 64.3114239236465
196.2045995877258 274.81552245618246 89.59934775180396
371.50418205201174 252.05415887353377 223.73761760515265
143.0880351128276 232.94089245784608 144.20620291956865
232.92694525894112 180.74854317536855 369.24963933381565
108.34904851099489 256.280344494821 172.16682726691457
167.44240356540422 163.26133516838647 168.83696578515224
343.7150112846311 216.53637609333467 351.5080224035765
371.9100703191881 181.5491349849295 259.0452063894689
236.86147720297265 116.6355324525541 228.3113403093731
147.59068694008502 186.05793984331513 333.11144279940805
292.07405237085277 215.6681180294515 118.68887254621629
290.1518332098902 248.1877994592125 393.3398345677226
231.81946592557537 199.76689295278007 101.89627842453591
212.74648681979608 129.7605413228826 234.18873488960264
274.0151475083184 170.89851284455287 181.23642449292697
250.85316680309165 298.04614532097605 139.85530774116324
268.3828558548403 163.01225859211985 189.49693297142338
226.05660845344462 133.65789877725817 227.03383526646968
232.14641191272867 207.17194702909404 108.92400427763542
287.5608570372629 250.72466859019045 387.1596390516983
286.3482717092208 219.94289505943664 122.67591446856208
152.74187433594827 191.79073235739776 330.52074823200945
235.548290276996 124.2468467074049 226.4195916010264
367.3374128657014 187.99656778159866 259.00387153229957
338.431687220527 220.49173491173906 349.17592052501993
172.25039849922496 167.99940521177606 174.45061578587624
113.82058018566227 256.6579797260087 184.65151952524047
230.793467178309 188.33566054818277 364.7531291448548
151.07446783413377 230.08272129054345 155.9074934127026
365.0869659595234 250.64640107289975 224.7853354750233
202.43021736852083 274.6880818905741 98.5380836408718
296.9164671728998 298.370622705912 74.80881820193356
267.06639293654246 149.32086273700594 186.84711965880695
322.4677568841305 214.75066480539897 196.79941052347198
329.21918376083 185.51456389228233 274.89349573770977
220.7797673775466 130.4039845099561 189.84687769346039
154.157815319859 233.5544282349451 342.172703986454
256.1760205625101 270.2932614854026 374.2970246515125
250.85316680309165 298.04614532097605 139.85530774116324
273.6850689775563 260.24017724925784 371.03745745650247
120.80490366520627 263.3623784102283 211.49049939543454
164.73905747708093 218.16887948958478 182.21851855584256
156.97290709887602 231.40597010682654 335.4737851813112
223.88530463469075 139.02664154008872 193.250847128188
332.4172425778041 190.37212765840349 270.3930532799771
321.49954645134363 219.61170183957861 204.27097650464714
262.9469132803028 154.86399060017885 191.90292365300724
285.7648437183236 301.8198670974421 88.05913156809349
209.09385431871513 274.6248641159335 107.91945935978059
358.2669050549175 247.51111447940485 226.35961059379406
159.27792080538174 227.53650327136623 167.13028917571333
229.04851218504442 196.15895429648594 359.60482071559073
119.68025291938764 256.2853322117954 197.07252583382868
177.09117215014132 171.80113189290546 178.5974527210991
333.30113577176 224.37048828046915 346.602066100864
362.3862385139421 194.2661575543175 259.4302780701319
235.00526851500393 131.89092502971096 224.0349860523133
157.40523900286124 197.37407275560034 329.2458441150952
280.15801358539136 224.53081247956882 126.83261857517125
284.84604573953857 253.21602893025826 379.12416117550873
232.8669295057697 214.9349483942596 116.54461764346797
250.85316680309165 298.04614532097605 139.85530774116324
235.33159969831746 222.860951004203 125.66154172567187
282.80563076168073 254.9899812012129 370.36975991864426
273.9696879531337 229.62323145932055 131.18523800401368
162.1905139394823 202.94245759184545 327.3862908986234
235.9119004181044 139.33167698657562 221.90640994590566
357.22519872052106 200.58860228310527 259.4180086696397
328.0166534456862 228.3850347968205 343.6573243979693
181.9148302064132 176.70523593614058 182.5794116271315
125.7283754266633 254.9081644566355 208.39456251532317
227.7756487214984 202.62329774440107 353.8222822654356
167.27376218944718 225.94932890380178 177.02487387842444
350.8826602281587 244.3558468560671 228.47750863179144
216.0873108268891 274.57513601164675 117.5917057472605
274.0801338629843 301.2702346628059 105.13513420042044
258.66459027931467 159.7358517514884 196.79937409142846
322.96690485425097 226.1698859391653 215.3200267222212
335.8928904627636 197.21113671361618 265.0424716751366
226.99320659874206 148.3452505095669 199.2636199754499
161.50971257439767 227.28013325945895 328.99906686521905
167.28695430249655 220.48678860713588 323.0026752293441
232.17933409319286 155.68130242275248 212.45241511425954
339.2110780805224 206.2518700550483 259.99720231450704
331.2716746204856 235.29688549642927 232.2689489839512
250.85316680309165 298.04614532097605 139.85530774116324
254.15573331764398 164.77389810744606 202.1699948430701
263.0435702910277 294.47687243382023 128.66934899451513
223.29536822698495 274.47733027395213 127.43077307515765
344.1768234046602 242.97810997975185 232.71048569603315
174.089448765393 226.92681739617532 183.07664196774647
226.78983238653882 209.32784218310627 347.5578117119352
131.67992691901088 251.4784828164683 216.10011503450903
186.2195713023179 182.37712926263302 187.01383452011686
322.8047890437874 232.73099186153803 340.37180930021066
351.92325732430834 207.00362779529448 259.0222254271737
237.0739717167237 147.25427806482963 221.18020152021
167.2843869919323 208.08864264729092 324.73692664170443
267.45798603332645 234.3837550267869 135.81337254435658
283.65565165915234 254.77359223499374 363.07304602673975
239.282491648823 230.85962585640144 136.0735785258058
190.2470413565033 239.5277220920805 198.3752975770044
248.5630853482866 239.17956307441196 143.82262307088416
285.0405651876151 254.34447913899024 354.1546105586678
261.725244544838 239.52694787941454 140.81815421458666
172.18595305237514 211.92919378928775 321.45845079695994
237.67865140665128 155.28397738092235 221.35203551889782
346.6740615605033 212.43755187502202 258.1794549780061
317.5181474329325 237.48125203458076 336.6121589419892
190.87183479870197 188.15766558449056 191.69695432649792
138.510390913432 247.75125346021903 224.84619489888365
225.56029966712433 216.0101662493064 340.69204487882274
182.00416776215667 227.8188333972129 189.94027265606113
337.3825112824356 240.4227929307184 238.4344540616933
230.5307105483174 274.1729012599941 137.2687930203396
255.3786757931437 286.4981574689934 142.86403561280906
247.77916308511672 247.96377492662097 332.6725697566335
250.11427413541156 169.211323404027 208.5138968603184
244.60557722911096 172.2728378849598 218.09808554212097
231.46357333459247 236.79598941895546 327.66248671648594
251.34354146992314 278.3623730551808 147.74206133448223
237.27345540545622 273.1302479912509 146.6437018967642
332.5916991916447 239.06444327996547 244.47553865149388
190.04942993196093 227.31369472633324 197.14524615744693
223.76768662248818 222.48303963776783 333.8218693638373
146.48204577492135 243.79786599742738 234.17952909718014
195.38515425419342 194.09502902289609 196.7792927348488
312.10454528912777 242.42236110856106 332.64879451512945
341.8140943918682 218.13388719988075 257.5569661414572
237.72712527933487 162.8994152342459 222.65956642574764
177.37468004729658 215.5024985004477 318.05441232994787
257.1324486416102 244.39450537852323 146.16899506661198
287.879705562806 253.98006128989712 343.4344714503137
295.7835340016746 254.20798504283053 329.631098524114
253.36811856992293 249.31473740144577 151.63226174040628
182.83864568816554 219.2864945819374 314.4244816434269
237.57761638726535 170.516225300364 224.6580751991564
336.7979589615762 223.7793076571141 256.8641247418133
307.47220610760644 247.14297339628666 327.6069623793845
200.27107124866197 199.8403416569265 202.39607648521525
154.25822479767692 241.18039435045824 242.9486380091661
222.2221296789394 229.09292140978783 326.69855308155957
196.9503009991867 224.44538300061208 203.21422769965164
327.8337999737976 237.69795578989405 250.62404103478747
241.66630313208097 269.46990904934563 153.82992489392797
246.16476840640323 265.49426078821347 160.25564351678403
324.83528076566273 236.88409726333867 255.02061284688605
205.66161132860177 218.56338482341442 211.41789547934025
219.53081701193287 234.03245857594365 319.46504196557527
160.73982002466806 241.97742861154103 248.7837338985352
205.6088208982453 205.19990293941024 207.9727427989126
303.20394035863524 251.84098613747238 322.2354821447035
331.5517436310582 228.61935302712976 257.35392819614896
237.1409325133065 177.97355133969887 227.04059176970995
187.9708825717528 223.50427364684376 310.0995569391307
249.95844916033346 253.95469060043783 157.9183501368966
248.5489503048957 256.78698204026546 164.26709509718467
192.66658494849992 227.89242137323924 305.19460859254167
236.85567434736137 185.66034079159738 229.3113732651771
325.99691341036004 233.5076492108079 257.8580858579473
299.56037612105604 256.52551335685257 316.61186358789047
211.19068660960673 209.6099110056653 214.41083826698775
168.1330763974974 243.48991828096305 254.91959777880473
214.59018202689987 238.41613181904634 311.43406928840324
207.64593338472648 240.22303833108782 300.6328993628598
177.28341563178606 246.50637633047273 260.95366774781047
216.91908783161693 213.8235512537303 220.6434453015672
296.44070141308606 261.1346550496096 310.4618763377284
320.5392410857639 238.1653527786012 258.2024159895779
236.62436317070467 193.57004185402917 231.73724343657466
196.75384119877458 232.5923094557626 299.91753846342607
248.22790551374777 259.16028396348935 170.56472777448914
248.03504082782726 261.8305984672078 177.15451188548403
200.40086496295592 237.33399209280427 294.3290681696499
236.47300140812766 201.6363459072899 234.3198995838545
314.9556091680741 243.18252107695284 258.07966162202143
293.4750582499828 265.3844571913374 303.7692143677355
223.6151376900081 217.44388455506618 226.81924155105847
187.9654634552183 249.09731290934846 267.39006129495226
200.85762170256513 249.38224157368302 274.68183144270563
230.94057919310927 220.4962039796354 234.1008934795788
290.11625338561913 269.203947483769 296.6052423282589
309.29525222111215 248.46303434278312 257.79204972338584
237.02092047027747 209.5756649423198 237.05912191996734
203.8116598562783 242.00832965710853 288.7010358300042
248.15785592346077 264.61649576783117 183.88789099365437
248.48281841775275 267.6428965174376 190.81634804288953
207.37799860643324 246.6988936186725 282.8346754761892
238.07306039008662 217.11630682104985 239.8449180991709
303.4205123635493 253.76013590377153 257.16054196045854
286.9175516648655 272.5091540097203 288.6089585970836
283.2356033077531 275.1485476883412 280.13240003357896
297.2022798132776 259.139028340112 256.2951218795464
238.99832250937197 224.53166899636716 242.6006419416716
211.08081216784495 251.25358628800785 277.35694737973023
248.8334918169409 270.7987918856344 197.96871549395578
249.05044956394414 273.9726094633831 205.37696853812625
215.16398647222013 255.74193832453736 271.71992960261446
239.93552110629025 232.02793354630433 244.99132259510642
290.9299844021685 264.5727983803559 255.1306707653695
279.5594401332608 276.7450013224722 270.75444153475627
276.9253750333824 277.3119928725255 260.9836115941333
284.4163904602368 269.84869828545345 253.72733217539027
240.65826726949615 239.60205550332242 247.13233034043537
219.42474315295433 260.0912180042184 265.8312644750394
249.28117126634788 276.9273598687378 213.04575663845722
249.57772375651095 279.93548980091646 221.1176385195124
224.24354275035756 263.9391646352803 260.1313542679308
240.979185760857 247.1163105521688 248.32608524398657
277.90371905447125 274.18823360407373 251.73232272552576
271.2510663481959 278.36639145214286 249.9688939294398
241.19020025926142 254.54909218666126 248.981194954871
229.90176067578227 267.2006643265967 254.96779148321042
250.07959801257374 282.4890188168776 229.6844299774554
250.09081307452666 284.39091751995767 239.34642625965552
236.00428917075237 269.5222683781911 251.59348837506025
241.2377392630476 261.81955558160615 249.60329207028227
264.22872544240585 282.15854605561725 248.47717479913914
257.4383367522225 285.29440161476487 248.6287780079605
242.0012474072501 268.1153455723834 249.91507146310215
242.4084247729661 274.43272968991334 250.1692784718193
251.03615382848642 287.4958839761718 249.40396340253156
250.48491936279342 293.5645182277459 249.70027228464653
250 300 250
250 350 250
250 400 250
250 450 250
250 500 250
