347.68496498529436 44.06567534586136 293.8166298173614
463.41576377354704 17.483166753501777 334.23410460655504
75.0907967768731 -19.289450592304725 67.01425591615669
136.94411638117498 236.09773039448595 282.61452241863105
144.63564152710933 302.0023084975182 459.1425783345105
39.66437153179402 224.46531456047532 102.13635876357549
368.3677877166456 88.39970607881787 278.3364860492221
131.3190898925787 -8.073711454000303 134.4981604991722
89.56583481700265 64.220186520005 82.95074467462135
347.68496498529436 44.06567534586136 293.8166298173614
463.41576377354704 17.483166753501777 334.23410460655504
75.0907967768731 -19.289450592304725 67.01425591615669
136.94411638117498 236.09773039448595 282.61452241863105
144.63564152710933 302.0023084975182 459.1425783345105
39.66437153179402 224.46531456047532 102.13635876357549
368.3677877166456 88.39970607881787 278.3364860492221
131.3190898925787 -8.073711454000303 134.4981604991722
89.56583481700265 64.220186520005 82.95074467462135
347.68496498529436 44.06567534586136 293.8166298173614
463.41576377354704 17.483166753501777 334.23410460655504
75.0907967768731 -19.289450592304725 67.01425591615669
428.4098487793234 11.285544721531085 415.1752819290191
378.2084189309787 -9.000176996152144 398.12088998431153
136.94411638117498 236.09773039448595 282.61452241863105
144.63564152710933 302.0023084975182 459.1425783345105
39.66437153179402 224.46531456047532 102.13635876357549
368.3677877166456 88.39970607881787 278.3364860492221
131.3190898925787 -8.073711454000303 134.4981604991722
89.56583481700265 64.220186520005 82.95074467462135
347.68496498529436 44.06567534586136 293.8166298173614
463.41576377354704 17.483166753501777 334.23410460655504
75.0907967768731 -19.289450592304725 67.01425591615669
393.51458935201606 2.62336993044919 399.6833391234795
411.1756806964205 7.6565717537325 407.16615975786357
136.94411638117498 236.09773039448595 282.61452241863105
144.63564152710933 302.0023084975182 459.1425783345105
39.66437153179402 224.46531456047532 102.13635876357549
368.3677877166456 88.39970607881787 278.3364860492221
131.3190898925787 -8.073711454000303 134.4981604991722
89.56583481700265 64.220186520005 82.95074467462135
347.68496498529436 44.06567534586136 293.8166298173614
463.41576377354704 17.483166753501777 334.23410460655504
75.0907967768731 -19.289450592304725 67.01425591615669
369.3063659924367 48.050909153399786 39.93241647828797
53.48347100409835 30.81235555305745 410.6970582489388
401.55658610714687 10.448803060376925 400.03952914615763
136.94411638117498 236.09773039448595 282.61452241863105
144.63564152710933 302.0023084975182 459.1425783345105
39.66437153179402 224.46531456047532 102.13635876357549
368.3677877166456 88.39970607881787 278.3364860492221
131.3190898925787 -8.073711454000303 134.4981604991722
89.56583481700265 64.220186520005 82.95074467462135
347.68496498529436 44.06567534586136 293.8166298173614
463.41576377354704 17.483166753501777 334.23410460655504
397.36892666619434 63.477070022367556 63.46131219621239
94.9504624186103 26.142099646878833 430.337774324886
400.7216114633316 16.883744416706786 396.006424076244
449.20708064613825 289.3526913922987 388.78801520154167
73.23735234149989 28.76073867650897 419.2139687445663
382.9222123538618 55.27371819247901 52.6452704795437
75.0907967768731 -19.289450592304725 67.01425591615669
438.73030764774654 263.1612669973574 440.75606570303836
136.94411638117498 236.09773039448595 282.61452241863105
144.63564152710933 302.0023084975182 459.1425783345105
39.66437153179402 224.46531456047532 102.13635876357549
368.3677877166456 88.39970607881787 278.3364860492221
131.3190898925787 -8.073711454000303 134.4981604991722
89.56583481700265 64.220186520005 82.95074467462135
391.8154441752185 182.12801824287448 409.18014625101233
347.68496498529436 44.06567534586136 293.8166298173614
437.70810893903297 271.8839829502307 422.8844473243026
463.41576377354704 17.483166753501777 334.23410460655504
55.269991409317754 42.01718865170642 221.32044364023952
84.48750838168624 13.249959455728188 75.0523802363272
388.3721307839268 56.76822104230625 64.64810390221702
86.15155016610805 31.62810569370927 422.34364183147835
443.09305185861564 280.50085466012695 405.70437001020446
103.80824173413835 24.13294058361256 73.76196361903662
398.90271592093995 27.7639123901934 389.6636105989257
404.45717275784546 182.21090039710296 424.4905068856606
136.94411638117498 236.09773039448595 282.61452241863105
144.63564152710933 302.0023084975182 459.1425783345105
39.66437153179402 224.46531456047532 102.13635876357549
368.3677877166456 88.39970607881787 278.3364860492221
131.3190898925787 -8.073711454000303 134.4981604991722
89.56583481700265 64.220186520005 82.95074467462135
59.80300921555093 74.79691628679923 405.5616388697092
445.0574130489275 122.97404900045147 98.38908307625286
62.68025622109475 226.7754392584176 437.25417669726306
400.93028197908495 185.11781055650155 413.14632088454243
347.68496498529436 44.06567534586136 293.8166298173614
395.9229360336338 40.881453688893345 382.3139803406876
111.21997068429579 39.63112786176254 83.26994146514679
430.0811520747739 43.68190205278978 248.3024494965228
437.4088022899998 275.20266854983066 413.28333454745626
90.4680228452573 36.82983375693107 420.93130205733854
386.10862288464443 53.58879587019493 72.33151015135587
84.92147107358674 45.33186796549144 78.679175474853
463.41576377354704 17.483166753501777 334.23410460655504
99.75178135210622 12.40810687934528 227.60633548798424
68.77062735374341 32.46630017102153 227.31323168970135
434.21427789091626 12.61735492512986 198.7997569632258
132.97878424077024 98.95832159597192 193.7610087795703
88.60217306978228 177.8335742735607 458.192098860227
136.94411638117498 236.09773039448595 282.61452241863105
144.63564152710933 302.0023084975182 459.1425783345105
39.66437153179402 224.46531456047532 102.13635876357549
79.07900141966286 192.15122416830198 448.45611748819346
114.95477754292493 90.92449587931851 195.8277145008902
426.6133644024574 23.390958185453908 213.53782372329601
106.57064664375629 53.65210453686048 416.1664411078097
79.29285439886227 32.38811781559257 234.48793305792597
368.3677877166456 88.39970607881787 278.3364860492221
131.3190898925787 -8.073711454000303 134.4981604991722
119.26462336884062 144.47464859931787 34.29398855290953
114.36269805559185 -1.9137938729842752 126.13707022232228
89.57730981143432 21.980175380105926 234.2905494281172
454.42431919410524 61.95390227983603 333.38686750918646
79.75181926958837 69.91907690654523 78.780494439719
381.69899449695765 50.36733707496938 84.13800162798056
93.97524735001107 46.68367691973756 417.4804904422386
238.2946650497322 31.172719772142557 238.069821838881
433.861225674157 274.0530019014468 412.0178423480271
427.81473976933415 33.6412004916105 230.59677646581372
112.78762304402659 47.03178192979424 93.30396561744953
391.8764410326429 54.21441031711407 375.21122675468393
99.93658788797687 77.84437592671014 195.88998303268784
346.32560584533513 27.446141776559628 269.28331867039753
325.14560629343015 69.41752675653257 411.68624707940774
404.49717363015907 188.72488011989688 408.8155525700564
70.79142865297746 209.24296765858935 442.29764936722677
431.8216133573763 200.50899000391294 378.61034698990903
429.3053141187601 113.27873690562676 89.03886906196495
72.51701803250705 72.46229600791382 408.59716053966207
136.94411638117498 236.09773039448595 282.61452241863105
144.63564152710933 302.0023084975182 459.1425783345105
39.66437153179402 224.46531456047532 102.13635876357549
92.06039326530241 67.77725854439971 411.37767887309894
206.5785308071513 18.037710485943236 218.0180070536589
117.03158060019433 63.14957573832668 118.64886028862762
382.19544424808146 81.89683671848461 373.52768077492834
418.2237997698885 110.6756509301474 84.96937169800373
418.6043544345046 202.47893895494045 391.7824628122947
74.56695723117743 199.24645951638237 442.40032785614835
408.67352631740346 195.45547778111057 403.1935183730737
326.4333961137714 62.99525024714508 385.1318078905609
336.9846050865635 16.47532694564522 242.65587914068513
413.2133384630189 119.65912716985399 73.07529223021993
105.20992125856928 87.35711587718107 197.7596512316923
125.30806542983987 -2.435210733872516 320.6007117837898
386.79111202380915 66.09194761643244 369.46673152886297
116.10621976831297 55.82090193317177 103.17469234723637
423.3291173660889 29.757837474955867 220.4516780554565
428.94994561949704 270.6941515565765 409.41620685259556
221.99833294243035 24.951333242979963 228.47554791343742
98.76615184403626 55.453348069811966 415.22435239076265
375.55441701065223 48.479500476728845 97.7916755740184
71.45669878212243 85.3413447059252 76.38475525982388
443.2249983958115 96.67461217164896 332.7891954903154
88.2182457375978 28.767007698996487 237.16280185154193
368.3677877166456 88.39970607881787 278.3364860492221
141.971494924665 -4.674271248098498 134.25530200029735
120.43589618289101 166.47477157926718 49.045701798923695
136.94411638117498 236.09773039448595 282.61452241863105
144.63564152710933 302.0023084975182 459.1425783345105
39.66437153179402 224.46531456047532 102.13635876357549
120.0416724036872 178.69034928812863 65.14348125970646
161.63269667533655 -3.5562665954021995 137.7052247703007
381.00706558559085 119.52564848330559 287.21322148721976
236.9584193336094 45.944833992856765 310.75025582524745
89.79255023223655 33.81983949324813 240.64969475422006
433.0049801040913 121.44550755081293 332.3968470319512
121.15261451791046 198.1087732138613 69.30692495149665
59.808616767303555 112.08627802041204 74.97899202739131
367.9287727176993 48.94461237891104 111.07426812422918
100.99617815526416 63.36472802795712 413.12897512811946
209.97346589477206 23.972752708132667 226.24792665730135
76.73255505878063 139.86260348270514 399.46469064835605
424.00576413575254 264.6984241760908 405.96501729047276
418.7395339286649 31.32089944912564 218.69261845509155
120.90683692582998 63.888074813217294 109.93055957202513
380.61195785676534 74.24182034399405 366.6004398127407
133.3469689124121 22.288708994986056 321.8932338206747
102.43942445445369 90.94575277783595 200.07854006203175
415.6550486042364 113.60016030682421 82.7493568440305
325.4936352582843 12.437953557367674 222.9063043058971
326.7628699816639 59.60021848507973 368.0598483233685
411.21536333237395 203.4993765696609 398.6886933080856
74.12457211454765 197.57564014060625 438.9124478053028
125.27663229301267 77.25541232535306 433.9066971346963
136.94411638117498 236.09773039448595 282.61452241863105
144.63564152710933 302.0023084975182 459.1425783345105
39.66437153179402 224.46531456047532 102.13635876357549
369.19749491321306 89.6792936667088 344.2472956898595
353.8091665957015 48.857580336810706 136.73643212670248
115.21577987685001 78.29422844774206 417.3532779051681
74.02415739337647 194.69733999853364 432.10802026996413
410.02179887791567 210.13202059083432 398.15593703559813
70.54681831080923 94.70021818348947 151.8999190047838
326.73919935488374 58.477577462266865 353.06561765811307
314.90434804241585 13.71540415696125 211.5792952585889
413.85581053689464 113.67067487411913 85.75680194810285
97.93818328055819 96.94116583000948 204.61827473065864
135.0455087734841 39.65565566170579 320.80358531158276
375.3336027966632 78.4516240008075 362.4664807493057
125.05571805793494 71.20190222107298 111.81701539058142
413.1965401179007 34.6533841369242 215.2782479134638
421.15144878279045 256.25870354654757 403.0781438691477
72.0135500227478 155.01227918513516 399.65307048624936
204.95003403155567 26.99901633542079 229.9314075484022
104.80819835799618 69.9336445244691 411.50958403422356
360.36116984161816 51.518734282231264 122.95210178124577
56.22817815462149 134.4922626462258 77.5840459452438
119.7717385726557 185.1157532787305 71.91581523385277
246.5302863505901 13.733291170398706 152.7444904673468
425.524012714669 136.88807499468848 329.66358035922354
92.56338357968833 40.86348538070938 243.84987050087554
243.17983332094994 55.14022236563755 338.88217397522584
395.55109873555153 142.29130543423545 301.2355894863777
188.38730804974404 8.681081109965687 146.17884880277026
162.43046357226288 74.5676521374689 315.6509206253746
136.94411638117498 236.09773039448595 282.61452241863105
144.63564152710933 302.0023084975182 459.1425783345105
39.66437153179402 224.46531456047532 102.13635876357549
79.76419163253155 111.67173098876368 216.84372115789415
143.05591810874168 72.84474804957992 318.3853333037569
361.95752448238 89.74548307402712 352.0018105124633
205.252580424557 22.160493269856055 155.46379893608372
407.56945916440674 155.412217929302 314.48343719080043
249.45332355670942 66.66357648007148 377.28240200894294
375.20895861085916 145.45553642182708 367.4430640551366
245.3216916459703 60.577846001375896 358.69324903215943
95.9809190820758 48.85780574330809 247.99921681954345
49.35561326588929 109.5823990622344 272.7618202528519
418.89038243772404 150.40876670081533 326.27517679373983
226.99361585487026 23.47009734004364 156.30596070939745
118.80931639401746 181.62255790050025 77.61957705365806
54.5134438169984 161.80061712096827 84.11142065919628
353.342847663397 56.54886204790667 130.43680750089231
109.18228112275226 77.11004076813572 409.478095720278
196.43891007068146 32.507167877789904 235.46474782714733
74.53701275453409 164.71993712000702 404.0759636668637
417.2816333014579 247.35390743645445 399.3161030396971
408.8920076590419 39.26937706309972 210.10669822661325
130.69807286484442 77.27468441437205 114.49350976973378
371.2808969979988 82.71457147635407 357.123062052138
135.65700619968294 56.139952043495775 320.0485310990835
93.147700597535 104.37506522876072 210.75583092359682
410.68381567752544 114.44277354773885 90.44407773940351
305.9655627340695 18.609916523743937 198.85910835205001
326.13850649898797 60.889690502808456 342.50816162444437
252.45321616730496 35.34746048908002 72.61357391577167
86.49944484886585 123.15372864306812 143.02002635710673
408.0284289231186 219.2027543075915 397.1420642599606
74.79552344583799 190.6735006370036 422.4711969565676
76.6265724284331 110.46753476617445 322.5003536100755
136.94411638117498 236.09773039448595 282.61452241863105
144.63564152710933 302.0023084975182 459.1425783345105
39.66437153179402 224.46531456047532 102.13635876357549
72.13750293165043 127.98104733200714 312.20366197524487
183.0104527304748 46.59803601297995 253.1928035653658
77.07211241554698 185.769529315583 411.7567590706233
405.87700721143347 229.7824416246002 394.65533132125574
45.91774535169944 223.3886594996761 212.43597675234645
98.43345884412767 142.45023444469416 134.1357834075415
295.79178815684867 28.71358287397649 116.93730801167867
232.98528133883065 61.3991558380063 96.93653178588245
325.68093904364855 64.81535726655999 341.83446349183095
299.94370213943745 28.638995252412435 186.91799201165253
443.3740762056752 104.62550598978405 228.8009088629036
406.3579488781091 116.29187589259965 96.68072961266739
90.32565505453299 111.7120884045531 217.173802362432
134.46518294780554 70.0427315754331 319.69670419715993
364.47355614341245 88.08747014952178 352.84462029870974
422.4692785034876 278.24862132231203 66.68680605038045
51.20080675849101 225.76099793445277 193.43402002850777
137.11043962471945 83.79026752034342 117.43214379226791
403.40144106887743 45.35575149734962 203.95908147478747
412.795644741453 240.1119018097688 395.380728097005
77.1371795095894 173.83261113644033 406.9799273501631
202.8442106910038 8.59545275861553 423.03796817561624
186.70927364729846 39.05150506032779 240.8738601880739
112.44055901190322 83.43634688540361 406.2846087163808
347.86522776487953 62.64571890894232 134.55392331164782
52.710966209707 179.23132779684633 89.0817295102567
117.17247069234325 176.36744935011924 84.3681755088448
215.9527503683905 27.95100846655928 159.42373675430323
413.95725859685655 159.82553592668006 321.93169695674385
62.07882423849495 124.74637652278741 293.14625911631094
99.89781775669408 57.51329788210717 252.73074447611515
244.52790446095378 62.647543569784034 369.5578689562263
349.7250717900075 100.46115306011829 137.67519781936656
367.10569662688 119.78290088736037 359.68821596687667
96.85413650187934 84.53196762290834 323.5910273123981
136.94411638117498 236.09773039448595 282.61452241863105
144.63564152710933 302.0023084975182 459.1425783345105
39.66437153179402 224.46531456047532 102.13635876357549
389.6242179696085 122.14552593537944 109.01399433595307
116.43027003456842 87.18941506866122 321.3857517365497
356.55520793493844 103.80058354483216 351.6034970268862
338.7902714990955 84.5005400374961 142.86931045935086
421.2898881936759 190.49756335743908 65.39134221289086
241.4107657957328 61.57513970450456 371.2176403492281
429.6974687185585 243.7232767870518 310.7243313723027
104.50867408473346 66.61662586719035 257.7426852386491
70.1842711673806 136.81940069403328 305.2167180062646
412.67341767092284 168.73071274518048 320.50965022689104
212.34884829062952 33.89386846313482 163.51671586390538
116.56049170531317 172.07503493045226 92.47509943343319
459.0693437705716 271.30616061834735 249.09512116949247
48.08947247938888 194.98487908974934 93.65033856252892
341.57281606049094 69.32699542238436 139.3978700991816
116.16999502518429 90.39066075672302 402.5919402465978
178.59283050362103 45.277737275165364 244.65421791322126
212.65238131993556 25.16572543046135 404.15543187855303
79.10901053695287 177.9637360717932 405.3644103435087
408.35820236400485 239.24300641981566 392.38473510233723
397.2270821146152 52.94907562573992 197.83797685493147
144.4272935177593 89.78463784452578 119.71593604580848
53.01091116748389 225.90988475989926 205.72816676511198
410.69686481965726 257.8042388578848 78.76479434337479
358.9311092378531 91.46163350667081 350.83872580902533
130.4073008067722 78.43198002397592 319.96918041837245
92.2412083231231 116.95825129265307 222.04594820205645
401.85381963374004 119.65096923083371 103.66049645168414
430.4200198810058 100.80183267745288 232.04587942456394
294.58900868350423 39.015318999246986 176.79186118079753
325.51627968070017 70.3446404530921 340.9819362954211
218.97297175070665 81.07766450623572 115.81718823381524
297.473818185331 42.681230113305475 144.60312776995062
105.96601612149225 152.85946428474645 126.5335329475451
136.94411638117498 236.09773039448595 282.61452241863105
144.63564152710933 302.0023084975182 459.1425783345105
413.7551052725452 199.22441943663898 315.05878559984006
116.81820166715174 165.24750737586132 114.89888985691262
39.66437153179402 224.46531456047532 102.13635876357549
295.46473472170607 54.5254885929003 163.2209145174838
203.6115947448376 95.7293792782496 126.1590297623726
325.9747453200445 77.5388775137555 340.04319516816696
291.1176774483712 48.8608787828625 170.31149361174437
100.06478468801792 213.02500464058525 266.5669771332322
421.1771203665892 105.57743397852765 231.7865966773228
399.2577879764372 125.32670103999973 109.59899884914995
94.84222705790141 123.65817790391306 227.93151043999808
127.07671259135002 87.3718272327052 320.16223458190734
353.0200919632103 95.00463393012296 348.6023113212795
402.07909814411624 244.99461768767105 85.20730375401396
58.52323557911363 227.57467625982412 208.85740215080995
152.05866988741366 96.05467605331236 122.17293748001298
390.79024399347793 63.37114559374507 193.4372935037372
404.5881011091683 240.20902081686197 389.0935548277226
81.51600507722094 180.330844734594 402.45350285864896
219.19120496894362 38.21436552167993 394.0427002709871
175.34975696674468 49.582370544621256 245.08512906678723
120.30628281717502 97.90403868675475 398.5279296858658
334.6658209167089 75.45323665627994 144.57478367739566
47.55711620615811 211.3955103971963 98.83750446930358
442.3706007077943 262.20983647170965 259.4694023696817
118.4717178471803 170.9302147199112 100.0014082919217
210.27860295565534 42.344849458428776 169.28907933607806
411.3143866640472 178.8443961088116 319.6106231873357
73.74064636721371 144.1844658348117 309.728005766301
111.22349840170067 76.10159462319726 262.7003700341196
424.83015402889305 248.31447604636523 290.4027649393001
236.7772813484093 61.25938153892808 373.25224644433695
399.71186737548516 208.529931413612 81.9372288064599
136.94411638117498 236.09773039448595 282.61452241863105
144.63564152710933 302.0023084975182 459.1425783345105
80.5556209061326 190.7464413225531 239.54151926998404
300.37607085376413 158.6767119454026 132.90443649914644
386.8816918573222 222.48116223512156 95.87169404784794
80.75698972432652 234.86496547450767 219.64412591231027
231.4179522466531 62.5808840606478 375.030175617071
417.24676514407065 250.38889350436207 264.2885090002942
118.86328101890396 85.42295228061244 267.3753455215031
79.36532728324006 154.09464484813563 313.9023400100775
409.5225386269389 188.1998970742446 319.3948549369058
211.73826478416566 53.92071850124837 177.16932342811006
121.3326606906457 170.58105476637218 107.49127805381066
428.0039757406941 255.92650575740095 260.5351770764806
52.34164230318831 226.55297407966077 104.1417525668988
327.943934341674 78.45196021327408 149.38394275001278
124.76960817711823 105.86403887850743 394.2291970982566
172.38939264390802 55.155920204137225 245.4156326516182
224.49514393915828 50.48393571239673 384.92723492066114
84.72775410954908 183.1867439871751 398.5983381569689
400.0939486073427 241.30329468636782 385.154884270648
385.862526236895 73.89792106544958 191.45548600684913
159.81841120130667 102.6676479798903 124.70896776028252
66.98893930098079 228.08162744994968 213.6050898691842
393.8987267380936 235.5320414152822 92.38847764977622
347.46263637184603 97.51115229854015 345.4992923561701
127.32018556201548 94.73587911045911 319.98492223658565
306.37983508270196 139.81620392063766 132.9890786477373
98.22128416053508 131.26177494916686 233.59876655893467
399.19171817231967 130.9778647344221 114.86453413402609
409.9350672517448 111.88031390906023 230.539768085248
375.73958900341216 285.3540712552681 367.3935178318825
90.37855651051862 202.16334440187012 252.62583958640442
291.36138523067046 56.551891387789944 170.66961116389527
327.53252769293744 86.15647405212661 339.20574842775557
191.28560474014196 104.07692319042539 129.35637302141683
136.94411638117498 236.09773039448595 282.61452241863105
181.0873228479299 114.32658880366188 131.6522852027358
330.84649878579995 95.53863245204664 338.7784497303926
385.76600803714484 130.10321176952257 230.7244917556831
341.2461070644622 270.8169773984221 360.916437050371
144.63564152710933 302.0023084975182 459.1425783345105
290.6156955994217 63.52412787197791 172.68244093546673
86.03174100657911 198.57775444512905 242.99161201695057
359.2529337927116 278.9063380899444 362.3017739824344
398.49657862343275 118.34942248303344 228.17005077719844
399.000561250964 137.66484692497136 121.12257381834759
103.04476938450122 138.48855124716079 236.4899468490865
307.99881201332573 154.3430332305348 130.36097816772016
128.29757055660156 103.07482268592801 319.6394195219404
341.4702118932681 100.28262650218525 342.27416400984634
387.2920285312031 232.0513710255267 99.26067013681804
75.16724547956672 226.09138919039628 218.69303429903482
167.10820769471377 110.40870596743957 127.05767034707843
380.55816292982803 84.77508259890857 189.32104082220317
395.0445816933697 242.2627832171167 380.7412739824781
88.7436171878306 186.5471349825714 393.81600742450115
227.6617991746124 60.69563235339517 377.9841474218738
172.15998029239304 61.68742911675772 245.62408469044368
129.4779042964773 114.14939007200348 389.7979519344407
320.5820496657005 81.71580161904427 154.83208465641394
64.6127799430793 238.20220625664697 109.04738501369474
419.59990968849183 253.5415239665688 254.5830627233698
125.95499563959089 172.7930694771404 111.84374614640738
213.69045030741918 66.1800997238472 184.1525766712046
406.8326740464008 192.67109401133965 320.5418559489386
88.46611763194221 165.70994856278062 316.8259063905567
129.32039710643977 93.80873571309769 270.8543326300737
136.94411638117498 236.09773039448595 282.61452241863105
172.63571068975898 126.79674241910725 141.1256313582387
367.3022729459904 104.8525540202685 178.71422755102606
112.12739087024234 186.63601218133374 314.6053163408481
142.5186815784587 99.36675139905176 269.22196985557895
100.30835068413342 174.2841331588736 319.426908457206
402.9514776239475 194.7395622954452 321.97331376704597
215.6252079458727 77.76858831589584 188.6595654500075
96.17827472589329 285.617387984257 437.0313749795261
131.8026364542755 174.8151885723935 116.44843591085552
413.23156936612025 252.57370027333525 247.51533501961055
92.10033126733225 254.20042825909886 125.36261981708549
313.45338565694533 85.62054641831908 160.47932532663745
134.36628011679667 122.64608256432307 385.30420153888724
173.89403225948718 68.70463394742038 246.17557604284576
227.02077672764585 66.40320814461488 375.3703608243804
93.46991929302767 190.3168126012164 388.2213845558432
390.2655649397167 241.65059153803156 376.8118731116087
375.2900687237786 95.48553749534238 187.78361933348106
172.21143319548707 118.09539327195135 129.72224562542786
79.1127403472657 220.82893844095062 222.1142671993259
381.77457063808424 231.49542494338496 105.80856274322902
336.51638487941597 103.8624283960328 339.44072546764744
442.24833411826717 217.27019783762913 209.0319985810048
131.30063737484463 110.03144026204684 318.88162513880917
313.8749914887583 159.8366544366377 127.2062109562495
108.27083901250067 146.47020043343798 239.44965645765112
398.30169589879273 145.20189725171474 128.4952663930873
388.6335154032089 123.2164914653381 224.62377489976916
352.273309992246 270.5709652713762 359.6703492798255
86.75095333110391 201.15399067825518 239.38791179152656
291.3614924811332 73.73953877238043 173.94535302480057
144.63564152710933 302.0023084975182 459.1425783345105
136.94411638117498 236.09773039448595 282.61452241863105
218.2788452410357 106.87205416293185 191.7498591295955
135.8004728386682 296.57179660135887 445.99987440038285
298.6347060476935 93.13492449746492 170.71790446459656
89.63011692851745 203.6264592089904 234.1316073194806
129.6977139374413 159.11431845960195 249.0828315886899
212.57363739656577 222.4152268049655 78.13488070215895
354.88167418584254 265.07272538789636 357.1843994353813
382.8730688949265 124.1023230205188 219.80065475377256
395.81509457666743 153.61717067788618 138.2012281496476
113.7639380583371 154.78803009173245 241.97366202615433
321.11179817744767 168.16138436378606 124.58235525474674
134.8869696223108 117.88850672872928 318.4148839421303
426.24901748288283 208.5456074063349 214.8508825549261
332.17937553979067 108.14878678900158 336.7999891581517
346.381630456131 271.33711761872354 412.4172256149011
375.298674986858 230.89204128973148 113.37323098092487
84.19404967153916 214.02975999585937 226.13194932991482
175.576990068194 125.51309759220706 131.8597616484488
370.9202454382651 104.81886858136036 188.84841104860124
384.7679668516794 240.955767425751 372.2410331366452
98.82578987277964 194.12791036313945 381.88723810148014
226.26522910282392 73.31087533020018 372.5822241393623
177.0325032101895 76.12883981369599 246.5828723057184
126.18101077758428 296.8028459399461 101.85950132270071
139.40886315533854 131.16700966238164 380.84792126227774
309.60429626595203 91.33133548076846 164.81217931491446
110.76259774996319 265.7260037415046 143.13036299255398
403.337156680786 250.50460042278536 237.62250165755253
138.22895076253812 177.0856862634927 121.41617521836457
117.64481858059376 290.938227981055 440.012427269809
216.46497292300666 88.60888548106084 193.69291432799582
398.1693713572755 197.11569221372127 323.80987042800314
109.16489145707706 182.30836796145894 323.4653225135835
160.241978209712 100.25662609309619 263.0222380703068
136.94411638117498 236.09773039448595 282.61452241863105
178.24452715402194 95.77647653624558 251.95554856584064
233.6698729258265 274.5475170262407 453.9855154519931
111.74270239967106 187.8733585630012 328.5953510522463
392.4603103084276 199.83449984633032 326.04427072999914
218.82045206808093 98.7984612693753 199.77595347945174
131.58399151719362 292.88642463083846 437.33981137782547
145.1775158445267 179.48351682778562 126.72448638689168
391.53557847055464 247.3786042029934 227.22221336190776
121.06535489219556 272.5909773233062 158.00028051559374
307.1357098383482 97.92661479960445 168.16457294022172
144.69796923382282 138.86818154787048 376.9020955369969
146.7493736210115 276.3104976365132 99.79087043888889
180.84836328824184 83.8671869246097 246.28594414800725
225.8601495046777 81.31840014602761 369.9392241144116
105.01472029781122 196.44009244195365 374.44232657436373
378.6580562321693 240.197212482309 367.07293617519997
367.85692507934704 112.74536449305059 191.64151429261187
179.0084919686497 132.26954585683998 132.71388815918644
89.81328372100349 207.44287223795945 229.4789713124462
368.17207734826945 230.04046972085342 121.50264843192866
323.3048568223221 272.82337607654716 408.0307921960869
327.424637348057 112.87050350035214 333.9768416027373
413.9258431101557 206.31315036076535 214.01107430239145
139.40478020409847 125.76917459719337 319.57268400481735
326.5229561260652 178.51455232583277 124.34417625965365
119.18016536324062 162.38580972385432 242.47163888312767
389.22220728969836 165.26370659294335 150.71103629485916
375.0683753562614 125.51288163196165 213.4534012780652
359.4076010876768 255.4337115489904 354.810774633428
192.78276154703553 240.48377373517033 89.66200834291448
127.52748075710161 290.98798248271464 194.48822999647533
136.94411638117498 236.09773039448595 282.61452241863105
127.36211451205874 281.8682774149007 185.3967561031477
182.12433032824168 254.53710787405564 100.49883075628274
364.21317951160273 244.93007187246468 354.1776874276401
365.4360533724871 127.86354745481997 206.80714221528518
360.3752299630563 226.8188725106848 145.53444272696066
368.9045293399366 188.18406589520464 173.2032013482958
122.07072629125946 169.42159526847644 241.57185590826552
326.4224323997325 189.22088852747729 128.33026755887903
145.38354502275035 133.8688004473325 320.9119261473094
401.41148793479204 201.9669230995701 213.88486601807608
322.2727383703784 117.97843231942348 330.9841132390427
310.18252217562923 274.36510650557534 402.69248309621184
259.2505496018359 287.8100609331733 376.02360732984715
360.6716337028393 229.0462403937697 129.81195368572673
94.59713017687662 204.20709365654423 229.50935019344402
183.30383733984266 139.28967720036349 133.96082170187105
364.30334778763495 120.29244229729152 195.45820720542326
372.39883604615767 239.18259091215182 361.53082491996463
111.5611075158453 199.0390081318062 366.7737847864669
227.06267517546368 89.91357352152372 368.3826054083419
185.64775020841125 91.23894116539569 246.26339324379634
164.17846355079388 264.51102245489784 101.54047507186198
150.18894848448704 146.70936471290608 372.7533133486845
305.83987039594535 103.61710284609055 172.0236781102994
123.60264089509836 274.9560726437348 168.4601466084275
379.4375219352474 243.47414958291438 217.68114101246684
152.78410505582607 181.33132400943433 132.53456694998553
136.75132183735226 291.8332030658763 430.9193606692339
220.8054930860745 104.32607920648033 206.74342592768076
385.8705979837964 202.92393670444577 328.6335714220579
249.1379073276483 159.25628571285912 96.38588131417919
116.1132297116083 194.73253624925997 335.81907689953704
239.29444442001108 279.4805355587871 425.2955399627145
136.94411638117498 236.09773039448595 282.61452241863105
237.65835136310162 281.73727194086825 402.9396203721147
122.66012382693398 202.2136614840243 343.4593971912082
232.63626174514047 162.1928262805516 116.06312326444126
378.5060353303481 206.45662130428155 331.5104324694614
220.44966033745905 109.68948180929769 216.3394884643374
146.05285753693383 289.7699615057233 420.6459794962275
160.82381112851317 183.4218924998385 138.48699222634903
368.43408428884464 238.94338244523738 210.25816507624822
126.50858706214233 276.14195830958414 177.63644733702986
304.43649745326263 109.90436480455823 176.2096882376428
155.79822146787507 154.65174422429007 368.49111519970353
175.4778752712065 260.4410550185354 104.92768620996755
190.97294265456878 97.48156827353148 246.7134883672349
228.15597328765892 99.44108163189502 366.5192433901473
118.37138067784764 201.91002409913423 359.25610790665456
368.35859171359994 236.45165797949034 356.68628424904875
359.6410905532314 125.8650515068409 198.82226551583852
187.91374716160533 146.84711779779565 135.38791563131372
100.5343835114463 201.23291294330923 229.06264610059188
353.00878083249904 228.27073479857472 137.7096023987181
249.19725498316413 286.0216243141232 388.91526769328124
298.16046152121527 270.72939245598144 398.9223668430642
316.7699409433832 123.41274005923216 327.8453918662194
388.3798314553811 197.1667535815181 213.58665208108195
150.56845336030167 142.10938063677398 320.71991977268357
329.4681135909569 204.54780830519996 135.54619841177504
123.5718615513948 178.80512405603363 238.03882716065456
140.43689212540323 259.9306073509696 368.4329349930064
354.5335112401506 205.99861500891663 189.48505731544762
175.7059044572564 196.0189296697007 155.75862276603974
136.94411638117498 236.09773039448595 282.61452241863105
342.8506052473405 222.83035752799827 196.18525661488897
141.94158587329431 264.4459498558361 349.1116149044693
118.25451601281523 195.83954497912464 228.3264984770574
333.8421776907435 222.82738847563786 144.38961995835007
157.22652814836317 148.58697887034495 320.2762099391214
375.7299672066116 191.90230622261004 212.83914887125198
310.9732864299812 129.11636751152415 324.5863461913587
284.4620723983616 264.38696631186616 392.4762730228357
239.04542443942307 283.2233139837005 391.8585389530187
345.6903418137608 229.02031432975767 142.98169966769782
106.65787061865663 202.3324373272688 227.21205588557726
192.80461726471597 154.6971982671581 137.09495157464906
354.58091548043853 131.01872126788314 201.28941702522775
365.90314841079334 232.70832001202098 351.2901229978384
125.39681870331339 205.4231441027218 353.5802440839931
228.0075011762532 110.32364184077115 363.2494958333151
196.69700388872135 103.5142182944699 247.14692467663926
179.62780091512516 263.33539122421854 108.9340286939202
161.48291947327093 162.67402031537904 364.1625736869577
303.4819610915815 116.7621578313884 180.51663247869874
128.53960348501474 273.6926215561217 180.78855284725753
139.5949012576182 276.87403116966726 334.17671830298957
356.7275904929616 235.0991894348922 203.3792485256996
169.78663464365397 186.34531225397265 144.1520873587006
158.8288946386581 287.0218641822034 408.541620859119
216.9788628345474 113.88873783412055 226.91336911646258
370.510623893566 210.7992461937978 334.58814768623887
220.20114535634315 163.87656395405472 126.69084449673097
210.43366102887566 168.08187319514374 137.50723758033655
362.06021923014526 217.7146441485139 337.72601551756856
213.02284229924823 117.35276503397408 239.73318981492844
240.7114342607934 187.0447643743794 415.1871547157757
173.78626372612084 283.4749703165004 395.45849262916283
180.2114190174024 187.96834906927666 148.99996552962457
136.94411638117498 236.09773039448595 282.61452241863105
344.06477933032846 232.56017352481723 198.33828522008676
142.62461041959853 267.206067795238 339.3047247942222
131.35806641310316 270.12463985668467 184.70437246743674
302.4360935717309 124.01396731399429 185.05442099672436
167.21702726112898 170.7652254232581 359.81200347737223
184.51606166796276 266.2811637215281 114.020646197693
202.22878533848774 109.85220595701792 248.0267910264156
228.02010024296226 121.85624609125212 359.10811730711197
132.11087585219684 209.0367591395601 349.87138377165667
362.4866491255836 228.80995644410828 346.2472882802387
349.1087144389938 136.5064061976864 203.87004862853868
198.23864630606013 161.79085977951706 139.70893665642325
113.3377483602942 203.7271472002172 225.20414227448225
338.3539708027595 230.76204097558445 147.19563657926886
231.8990872972632 281.8422406457664 389.43634765657765
272.4133989167342 257.0838854716379 385.83841008546625
304.9359251211141 135.0391209836517 321.22453595999883
364.8511916370841 185.99313382160312 210.99036327380048
164.79107096164194 154.8907720163468 318.65026777277063
176.38631640948378 162.77934417994666 317.29390783335526
352.5936821986453 179.87111845717226 210.78970325653904
298.6840518926876 141.12581674062605 317.7152277677742
264.19133109967026 248.89842916582836 379.85325919299737
223.83506247547635 280.18863454081924 385.50362834698416
332.053315827864 233.39906990569386 151.61853210987158
118.90433323783853 206.6715057469641 223.70557987075597
202.46140998378237 168.70546318684626 143.19864716814035
343.3418079038128 142.26777335585155 206.58938755542073
357.949307735858 226.40080229688476 342.99164972784627
138.9250885007715 213.50340700208213 346.9294511473986
228.29731051368455 134.46282030903234 351.8684686920757
207.65520169125855 116.23146285606357 248.27788404880604
190.32593650583496 268.25725447400765 120.34238341906594
172.9696907373961 178.95205866381917 355.61880217345345
301.31993469243946 131.58158437846336 189.76956679323078
135.00588144663715 265.51921442744964 189.4915853429934
146.34018663246636 262.06093284448224 336.4243238147357
335.8624617809744 234.5071626188492 195.71706523501294
141.47706170777556 243.84982337208535 304.8929780435917
189.6319977197377 187.51379675702992 151.4575249787865
190.6991224976934 278.66237000656685 381.09843265884103
245.03470902402546 210.29231472367547 395.0150668240379
246.81471826594202 223.95129137762157 376.10434920978815
202.83982224678425 276.5092676551972 375.1141454213804
201.29410832228095 186.57785919628316 153.2868157795358
152.26345344426312 245.1852368165961 322.7306418733527
325.9979415746378 237.1693160767935 192.0142930805866
151.30660174139518 255.54992740906468 332.82844660782047
139.33292289792283 260.1352819737134 195.11725982399594
300.14486883741756 139.4050484073925 194.63711075294842
178.5821775278736 187.5260448923159 352.97073521563686
196.56468353937296 270.6934963498991 127.5242757639846
212.2079634105133 122.37657662394369 248.9081944884255
228.79294106425317 147.00055309210043 344.6906676393208
145.71945165653787 218.68063016352477 343.9252322801421
352.9526297317101 224.47712896177129 339.9984866594586
337.76364367897156 147.95280439560278 209.4905395990883
205.82170190141008 175.32001692092751 147.04766544120704
124.41395694945531 210.3880911060957 224.15947295613523
325.19082487487566 235.71680232064344 156.3714366862787
216.38498883716866 278.19289671445125 380.19585737196695
257.1408044394401 240.5303548030325 374.5566797445635
292.0176712624629 147.19147578738202 313.3667500013732
342.9993050452021 172.80389317657307 211.10395552010314
203.23264952810044 170.51601849497604 321.5256224812498
222.99620872233618 171.4072384392917 327.48188576417493
332.5032477964317 166.67384133586654 212.52875259704518
285.80351318749325 154.3071958106161 308.52300399471136
250.47484386383186 233.09863588887177 368.63593293463504
212.91602261009737 275.8529204286428 373.780136268538
318.02934052091484 238.17979202601194 161.49154323749357
130.0499735544655 214.65793817222777 225.2270017489485
209.6384971135209 181.51965015223786 151.308169416647
332.2592903640112 153.9604522379234 212.62645176625435
347.6381162450528 223.610861446329 337.0350517406716
152.64947418658906 223.12670676907226 340.4085910602044
229.68185430195277 159.12207517224152 337.7500009990616
216.64819563998986 128.89065306418092 249.93560518072817
203.2947399029731 273.02822193983565 135.75977289056564
184.0438100229361 196.22866023642703 350.675664140859
298.8218672736778 147.48164328230035 199.87092470391178
143.9303922674802 254.19929872888687 201.4176490607877
157.23214877195744 247.5182586704942 330.9438990831651
315.5993134544046 239.97023580032285 186.69477624644702
235.25709511488373 222.97968873451842 352.76549415927036
306.9625868521462 242.98622422954338 178.81755000589004
163.62275267660735 241.84077083266183 331.7495469732011
147.65932659152392 247.666472089067 208.11508992244273
298.2732677969139 156.02225150850734 206.26462425441198
189.35913831031695 205.16488324602253 348.1214158314567
210.96998287387208 273.81664497546103 146.10579434736502
220.96925591954107 135.75392576510222 251.25568203543125
231.4955844714429 169.86222872593194 331.5560478184699
159.75290081936777 227.6557344502365 336.79331211797705
342.2949930807213 222.99532599896517 334.0454201937591
326.93156753780016 159.0317025884503 214.9573256090749
213.70438386741964 186.8311456217704 155.49370314262342
136.05927121886762 219.27595389442627 226.4163047067122
310.62059092167004 240.74832407718557 166.6369570791872
212.17097396204437 273.61607524541614 367.8571042220884
246.65198268392638 228.910462136445 361.7256421798457
280.1437523939401 162.7888518340665 302.4622853740187
272.6189539293542 172.9433433446266 298.33165952402715
244.9386696388521 226.01223584224104 353.33500838610627
211.50304733221637 270.8501208129219 360.64742066131083
303.0679063589119 243.42697851621614 169.78599540008543
142.38058231743483 224.1989511796411 227.7398631047123
217.67850588505044 191.83642179658244 160.20057192216765
321.54700245233323 163.78735699826007 217.57481627277198
336.9716148752101 222.57345645131747 330.72075870259874
166.28345135920293 231.84673822928136 333.9760249958082
235.71593641975235 176.38210544642396 327.6322671579499
225.45520167024756 142.8739989014313 252.62082825340045
221.02247847666567 272.53984077047573 157.5482634904782
192.8652197170902 216.0249843535878 343.64495228929536
299.05882194451846 163.28411422939408 213.27059448067646
151.7890286463183 241.1551478937747 215.37994727308612
156.03598808383495 235.43911103717528 223.6794767941127
303.71697762495967 169.98402564739575 220.66220110490534
184.95256999181868 232.72887472972587 333.47037655968074
226.08470842611592 276.7912747901031 184.03414353161148
226.20963866096025 272.4847250585114 167.8598016942454
230.07560138275318 150.21736075631506 253.9967454460886
239.6629686952243 183.1315441029257 323.3227482731253
172.48759503454272 235.68610736821225 331.5012801731537
331.5721916915917 222.96012321006535 327.2639024630233
316.6058793992467 168.64967926930947 220.67812418262852
221.8490646587622 197.09290329159603 165.15153045818934
148.8716901066489 229.1992591572697 229.29832478186057
295.6608397792571 245.6346731148246 172.1273763628992
211.05581352612336 267.5231607233363 352.1582446587397
246.37913878743908 224.59764062609113 346.7068003367086
260.50428309355226 184.2033552854196 300.89774698540134
217.12520881063472 236.2621484685826 173.43306241089059
228.3872644678496 222.59964975498792 179.12209310647376
250.3870515879231 196.46472031693293 307.65040178010446
270.90529287442837 251.90511832361835 174.3000859165764
248.35271667762174 222.85125896406046 338.4149845808761
210.36193962020383 263.955699170379 342.90706245594373
287.7070338905608 247.80047695962017 174.847746997052
154.2907457246118 231.77582753756292 232.41554235789306
226.14770365939648 202.6885039480663 170.27584846551832
312.20863758871417 173.7664124401351 224.2236410261871
325.8445858190522 223.44727406896112 323.62983473959014
178.97133060005964 239.7017670695041 328.68725720485986
242.68147713368904 190.3276789863629 319.07695899173586
234.625217595673 157.87072587339307 254.97400425212643
232.6582806648997 271.6945721490099 177.51131121951516
236.0593855776965 216.69843480354393 182.6218390875131
239.7691109241316 269.54325757503113 183.1687700666969
239.24667621278357 165.6904775442933 255.9508929011402
245.72976610049128 197.7250798685765 314.80317149636875
185.1221514377765 244.0316318258847 325.64213810051746
319.8297486758394 224.05492143150659 319.8297922245654
307.9394925854495 178.38112377539974 227.9110347917582
229.79180815291627 208.46791759769897 175.57398875311605
159.65708051959288 234.21092138397455 235.9951297744328
278.96926824536706 248.69855448601936 179.33198737789598
208.99304510000667 260.28060686458207 333.0339325558045
250.600265066579 220.49871297987926 328.52872097736537
253.17834010522785 216.82970779542214 316.93105504906225
204.55697814806186 256.7531909173026 322.2301083035108
273.20737284043736 248.6325396156545 184.79914131320808
165.309874373826 237.0944320678003 239.4244950211342
233.55871580873804 214.31640996364058 181.01979971356602
303.4529834959081 183.23060984949126 231.7587879428236
313.95290683673943 225.295554542102 315.76138105630815
190.95199645616137 248.12883423387663 321.81907103924607
249.02691519217132 204.56050199344364 311.96149958200834
243.30030931902192 173.76366703792496 256.8190605559823
247.651267967733 265.43748026770703 189.81740192842975
254.5104787961943 256.31103737026046 197.37307720286572
246.58868312615243 221.27743318030474 302.37258592270905
244.14462687165664 195.67065408655284 261.17907391181234
247.55789863552224 181.80011268927473 257.3446071046568
252.8162269143459 211.1027958071083 308.59562185543183
196.35762965180643 251.7168199208529 317.23026858112826
308.18623390869607 226.45464442702723 311.4087088584088
298.7642207317521 188.29116584965956 235.7422385165338
237.46631516190095 218.59033269532037 186.24310609492508
171.25336408374346 240.35836005955886 242.6309088630034
266.84173067432266 248.4975068806975 190.96283979297846
211.40198240242532 250.16853403801608 305.8520827547823
261.4392438022636 247.59179820615708 197.79002308106413
177.40680238365886 244.10126059783133 245.49413997537172
241.61947940379085 223.144112640242 191.8120197468624
294.03743337043875 193.49558450043853 239.92423744510603
302.21122574834703 227.71064222768283 306.9020706824961
200.9796369684862 255.04030161092356 312.10271938824263
256.19829808339404 217.04727069585317 304.4775939217868
251.85401285395997 189.97544508009275 257.3008971144486
256.562163943052 197.83865906513577 257.7347970523631
260.10246137496694 222.3595478685967 300.5834591375853
205.4364138024894 258.7235307461793 306.4866587508702
296.0576283034968 229.0559554020393 302.24998630636793
289.24274051427096 198.92421344969148 243.9141928268228
245.79210998783455 228.2566571371778 197.63939525241838
183.5051034065624 248.01540198314038 247.80199353369733
256.9465624045241 245.7967227898657 204.2370233931469
252.35987089627886 242.3634402117488 210.36638436391303
189.76158359674685 252.2930546267361 249.8426420072423
248.4990445918409 232.52136871066074 203.74582247069634
284.3549781347837 204.4914555366761 247.59467800363475
290.084486767937 230.44108511016952 297.3202130982971
209.51155507774044 262.6482056528932 300.75233016168505
265.11410513351444 227.72867692222502 295.7389736270723
261.6579822181311 205.98695143050827 257.5506730480842
267.70914049569006 214.40135532797962 256.10899467328323
270.47661040598314 233.26013405976963 290.01852405391355
213.46491359559874 267.04865680823673 294.8933912984628
284.2634218084924 232.17054246561509 292.22869251818264
279.984061227036 210.70012182922255 250.90561025621133
249.750848302035 236.47111966907795 209.9107869923467
196.1262094812047 256.88878076514305 251.87771213626638
202.45217804647643 261.8659148409934 253.66625626431903
250.8332401492049 240.1546068444101 216.10276340980988
277.2371534387454 217.4043694041936 253.42251257906557
280.28719608037085 234.68628883983067 286.9685437158709
217.6035503660775 271.40089620115594 288.70050567285836
222.17029927137523 275.0451461932622 281.9636886823447
277.5240653889699 237.56103711708823 281.59582309886844
275.038750194568 224.2416407209167 255.68627598372245
252.24216591246162 244.25596640080502 222.2555901558951
209.20934623917216 266.54983399513134 255.1469361564236
216.0614448433743 271.3491170748522 255.8335801507074
253.677197897101 248.52120557247784 228.6000113893832
273.1220017793083 231.27556155376362 257.83827661497907
275.0440350190941 240.73393839452814 275.9935183634314
226.58071656879923 277.39246780293655 274.11953575149937
230.67738813527492 279.214042609113 265.2394438617189
